ply
format ascii 1.0
element vertex 1229
property float32 x
property float32 y
property float32 z
property uchar diffuse_red
property uchar diffuse_green
property uchar diffuse_blue
end_header
0.0550962 -0.103508 -0.916 255 80 0
0.0568524 -0.103847 -0.919 255 54 0
0.058746 -0.104412 -0.924 255 24 0
0.0601345 -0.104073 -0.921 255 40 0
0.0617136 -0.104073 -0.921 255 40 0
0.0632241 -0.10396 -0.92 255 46 0
0.065365 -0.104864 -0.928 255 0 0
-0.127431 -0.109415 -0.95 169 0 0
-0.125472 -0.109134 -0.948 175 0 0
-0.123579 -0.108903 -0.946 182 0 0
-0.121565 -0.108558 -0.943 189 0 0
-0.119306 -0.107982 -0.938 208 0 0
-0.116372 -0.106771 -0.928 255 0 0
-0.115147 -0.107116 -0.931 242 0 0
-0.112082 -0.105735 -0.919 255 54 0
-0.110261 -0.105505 -0.917 255 71 0
-0.108518 -0.105344 -0.916 255 80 0
-0.106827 -0.105229 -0.915 255 88 0
-0.105024 -0.104999 -0.913 255 106 0
-0.103455 -0.104999 -0.913 255 106 0
-0.101885 -0.104999 -0.913 255 106 0
-0.100153 -0.104828 -0.912 255 114 0
-0.0984781 -0.104714 -0.911 255 121 0
-0.0967002 -0.104484 -0.909 255 137 0
-0.0950338 -0.104369 -0.908 255 144 0
-0.0933709 -0.104254 -0.907 255 150 0
-0.0919684 -0.104431 -0.909 255 137 0
-0.0901091 -0.104086 -0.906 255 157 0
-0.087185 -0.102478 -0.892 188 255 65
-0.0857493 -0.102592 -0.893 202 255 51
-0.0834614 -0.101673 -0.885 114 255 139
-0.0819019 -0.101624 -0.885 114 255 139
-0.0803829 -0.101624 -0.885 114 255 139
-0.0787748 -0.101509 -0.884 107 255 146
-0.0772576 -0.101509 -0.884 107 255 146
-0.0759974 -0.101854 -0.887 131 255 122
-0.074559 -0.101968 -0.888 141 255 112
-0.0730764 -0.102026 -0.889 150 255 103
-0.0717124 -0.102256 -0.891 174 255 79
-0.0702628 -0.102371 -0.892 188 255 65
-0.0686557 -0.102256 -0.891 174 255 79
-0.0672026 -0.102371 -0.892 188 255 65
-0.0656725 -0.102371 -0.892 188 255 65
-0.0642143 -0.102485 -0.893 202 255 51
-0.062725 -0.102555 -0.894 216 255 37
-0.0611921 -0.102555 -0.894 216 255 37
-0.0596592 -0.102555 -0.894 216 255 37
-0.0582564 -0.102784 -0.896 240 255 13
-0.0566568 -0.10267 -0.895 228 255 25
-0.0551838 -0.102784 -0.896 240 255 13
-0.0535278 -0.102555 -0.894 216 255 37
-0.0521112 -0.102784 -0.896 240 255 13
-0.0505185 -0.10267 -0.895 228 255 25
-0.0488459 -0.102381 -0.893 202 255 51
-0.0473157 -0.102381 -0.893 202 255 51
-0.0458367 -0.102495 -0.894 216 255 37
-0.0442552 -0.102381 -0.893 202 255 51
-0.0427249 -0.102381 -0.893 202 255 51
-0.0412408 -0.102495 -0.894 216 255 37
-0.039842 -0.102839 -0.897 251 255 2
-0.0381768 -0.102495 -0.894 216 255 37
-0.0364809 -0.102037 -0.89 160 255 93
-0.0350343 -0.102266 -0.892 188 255 65
-0.0335433 -0.102381 -0.893 202 255 51
-0.0319981 -0.102333 -0.893 202 255 51
-0.0304344 -0.102218 -0.892 188 255 65
-0.0289066 -0.102218 -0.892 188 255 65
-0.0273788 -0.102218 -0.892 188 255 65
-0.0258509 -0.102218 -0.892 188 255 65
-0.0243231 -0.102218 -0.892 188 255 65
-0.0227697 -0.102103 -0.891 174 255 79
-0.0212198 -0.101989 -0.89 160 255 93
-0.0197175 -0.102103 -0.891 174 255 79
-0.0182118 -0.102218 -0.892 188 255 65
-0.0166652 -0.102103 -0.891 174 255 79
-0.0151221 -0.101989 -0.89 160 255 93
-0.0135824 -0.101874 -0.889 150 255 103
-0.0120462 -0.10176 -0.888 141 255 112
-0.0105015 -0.10153 -0.886 122 255 131
-0.00900423 -0.10176 -0.888 141 255 112
-0.0075001 -0.101989 -0.89 160 255 93
-0.00598241 -0.102103 -0.891 174 255 79
-0.00445129 -0.101989 -0.89 160 255 93
-0.00292688 -0.101989 -0.89 160 255 93
-0.00139775 -0.101645 -0.887 131 255 122
0.000121521 -0.101645 -0.887 131 255 122
0.00164264 -0.10176 -0.888 141 255 112
0.00316006 -0.101645 -0.887 131 255 122
0.00467933 -0.101645 -0.887 131 255 122
0.00619859 -0.101645 -0.887 131 255 122
0.00770046 -0.101416 -0.885 114 255 139
0.0092163 -0.101416 -0.885 114 255 139
0.0107685 -0.10176 -0.888 141 255 112
0.012331 -0.102103 -0.891 174 255 79
0.0138571 -0.102103 -0.891 174 255 79
0.0154005 -0.102218 -0.892 188 255 65
0.0169284 -0.102218 -0.892 188 255 65
0.0184562 -0.102218 -0.892 188 255 65
0.019984 -0.102218 -0.892 188 255 65
0.0215842 -0.102562 -0.895 228 255 25
0.023143 -0.102676 -0.896 240 255 13
0.0246501 -0.102562 -0.895 228 255 25
0.0263001 -0.10302 -0.899 255 230 0
0.0278709 -0.103135 -0.9 255 216 0
0.0294125 -0.103135 -0.9 255 216 0
0.0310228 -0.103364 -0.902 255 192 0
0.03264 -0.103593 -0.904 255 172 0
0.0342043 -0.103642 -0.904 255 172 0
0.0358325 -0.103871 -0.906 255 157 0
0.0375089 -0.104215 -0.909 255 137 0
0.0390665 -0.104215 -0.909 255 137 0
0.0406689 -0.10433 -0.91 255 129 0
0.0423675 -0.104673 -0.913 255 106 0
0.0438358 -0.104444 -0.911 255 121 0
0.0454468 -0.104559 -0.912 255 114 0
0.0470611 -0.104673 -0.913 255 106 0
0.0486789 -0.104788 -0.914 255 97 0
0.0503001 -0.104903 -0.915 255 88 0
0.0519551 -0.105079 -0.916 255 80 0
0.0534088 -0.104849 -0.914 255 97 0
0.0550962 -0.105079 -0.916 255 80 0
0.0569143 -0.105538 -0.92 255 46 0
0.058746 -0.105996 -0.924 255 24 0
0.0601998 -0.105767 -0.922 255 35 0
0.0617136 -0.105652 -0.921 255 40 0
0.0630179 -0.105193 -0.917 255 71 0
-0.130696 -0.112454 -0.962 151 0 0
-0.126894 -0.110583 -0.946 182 0 0
-0.12606 -0.111285 -0.952 165 0 0
-0.123971 -0.110882 -0.949 172 0 0
-0.12092 -0.109597 -0.938 208 0 0
-0.118925 -0.109246 -0.935 225 0 0
-0.116061 -0.108078 -0.925 255 17 0
-0.11292 -0.106615 -0.913 255 106 0
-0.112326 -0.10755 -0.921 255 40 0
-0.110502 -0.107316 -0.919 255 54 0
-0.108447 -0.106849 -0.915 255 88 0
-0.106827 -0.106802 -0.915 255 88 0
-0.105254 -0.106802 -0.915 255 88 0
-0.103681 -0.106802 -0.915 255 88 0
-0.101997 -0.106686 -0.914 255 97 0
-0.100426 -0.106686 -0.914 255 97 0
-0.0985862 -0.106396 -0.912 255 114 0
-0.0968066 -0.106163 -0.91 255 129 0
-0.0950338 -0.105929 -0.908 255 144 0
-0.0933709 -0.105813 -0.907 255 150 0
-0.0918127 -0.105813 -0.907 255 150 0
-0.0893135 -0.104709 -0.898 255 244 0
-0.0874782 -0.10436 -0.895 228 255 25
-0.0854613 -0.103777 -0.89 160 255 93
-0.0836501 -0.103427 -0.887 131 255 122
-0.0820343 -0.10331 -0.886 122 255 131
-0.0806038 -0.103427 -0.887 131 255 122
-0.0785075 -0.102677 -0.881 79 255 174
-0.0771702 -0.10291 -0.883 99 255 154
-0.0760831 -0.103493 -0.888 141 255 112
-0.074475 -0.103376 -0.887 131 255 122
-0.0728704 -0.10326 -0.886 122 255 131
-0.0716719 -0.103726 -0.89 160 255 93
-0.0702628 -0.103901 -0.892 188 255 65
-0.0687327 -0.103901 -0.892 188 255 65
-0.0672779 -0.104018 -0.893 202 255 51
-0.0656725 -0.103901 -0.892 188 255 65
-0.0640705 -0.103785 -0.891 174 255 79
-0.0625421 -0.103785 -0.891 174 255 79
-0.0612191 -0.104134 -0.894 216 255 37
-0.059726 -0.104205 -0.895 228 255 25
-0.0581914 -0.104205 -0.895 228 255 25
-0.0565935 -0.104088 -0.894 216 255 37
-0.0551222 -0.104205 -0.895 228 255 25
-0.0536475 -0.104321 -0.896 240 255 13
-0.0521694 -0.104438 -0.897 251 255 2
-0.0506314 -0.104438 -0.897 251 255 2
-0.048765 -0.103739 -0.891 174 255 79
-0.0472372 -0.103739 -0.891 174 255 79
-0.0457854 -0.103911 -0.893 202 255 51
-0.0442552 -0.103911 -0.893 202 255 51
-0.0426292 -0.103679 -0.891 174 255 79
-0.0411485 -0.103795 -0.892 188 255 65
-0.0397088 -0.104028 -0.894 216 255 37
-0.0381768 -0.104028 -0.894 216 255 37
-0.0365629 -0.103795 -0.892 188 255 65
-0.0350736 -0.103911 -0.893 202 255 51
-0.0335809 -0.104028 -0.894 216 255 37
-0.0319772 -0.103795 -0.892 188 255 65
-0.0304487 -0.103795 -0.892 188 255 65
-0.0289526 -0.103911 -0.893 202 255 51
-0.0273788 -0.103746 -0.892 188 255 65
-0.0258509 -0.103746 -0.892 188 255 65
-0.0243776 -0.103979 -0.894 216 255 37
-0.0227953 -0.103746 -0.892 188 255 65
-0.0212436 -0.10363 -0.891 174 255 79
-0.0197175 -0.10363 -0.891 174 255 79
-0.0181914 -0.10363 -0.891 174 255 79
-0.0166465 -0.103514 -0.89 160 255 93
-0.0151051 -0.103398 -0.889 150 255 103
-0.0135824 -0.103398 -0.889 150 255 103
-0.0120598 -0.103398 -0.889 150 255 103
-0.0105252 -0.103281 -0.888 141 255 112
-0.00899409 -0.103165 -0.887 131 255 122
-0.00749167 -0.103398 -0.889 150 255 103
-0.00596898 -0.103398 -0.889 150 255 103
-0.00444629 -0.103398 -0.889 150 255 103
-0.0029203 -0.103281 -0.888 141 255 112
-0.00139617 -0.103049 -0.886 122 255 131
0.000121247 -0.102932 -0.885 114 255 139
0.00163894 -0.103049 -0.886 122 255 131
0.00315649 -0.103049 -0.886 122 255 131
0.00467405 -0.103049 -0.886 122 255 131
0.0061916 -0.103049 -0.886 122 255 131
0.00770046 -0.102932 -0.885 114 255 139
0.0092163 -0.102932 -0.885 114 255 139
0.0107079 -0.1027 -0.883 99 255 154
0.0122895 -0.103281 -0.888 141 255 112
0.0138416 -0.103514 -0.89 160 255 93
0.0154005 -0.103746 -0.892 188 255 65
0.0169284 -0.103746 -0.892 188 255 65
0.0184769 -0.103863 -0.893 202 255 51
0.0200288 -0.103979 -0.894 216 255 37
0.0216566 -0.104444 -0.898 255 244 0
0.023143 -0.104212 -0.896 240 255 13
0.0247052 -0.104328 -0.897 251 255 2
0.0263001 -0.104561 -0.899 255 230 0
0.0279329 -0.10491 -0.902 255 192 0
0.0294916 -0.104959 -0.902 255 192 0
0.0311061 -0.105191 -0.904 255 172 0
0.0328358 -0.105773 -0.909 255 137 0
0.0342422 -0.105308 -0.905 255 163 0
0.0357534 -0.105191 -0.904 255 172 0
0.0373025 -0.105191 -0.904 255 172 0
0.0389376 -0.105424 -0.906 255 157 0
0.0406242 -0.105773 -0.909 255 137 0
0.0423675 -0.106239 -0.913 255 106 0
0.0439321 -0.106239 -0.913 255 106 0
0.0454468 -0.106122 -0.912 255 114 0
0.0470096 -0.106122 -0.912 255 114 0
0.048654 -0.106301 -0.913 255 106 0
0.0502195 -0.106301 -0.913 255 106 0
0.0519551 -0.10665 -0.916 255 80 0
0.0534088 -0.106417 -0.914 255 97 0
0.0549158 -0.106301 -0.913 255 106 0
0.0567906 -0.106883 -0.918 255 62 0
0.0584282 -0.106999 -0.919 255 54 0
0.0603304 -0.107581 -0.924 255 24 0
0.0622497 -0.108163 -0.929 251 0 0
0.0642833 -0.10891 -0.935 225 0 0
-0.134756 -0.116183 -0.979 135 0 0
-0.130425 -0.113873 -0.96 155 0 0
-0.127028 -0.112331 -0.947 179 0 0
-0.125928 -0.112806 -0.951 167 0 0
-0.123114 -0.111738 -0.942 191 0 0
-0.120147 -0.1105 -0.932 238 0 0
-0.117907 -0.109907 -0.927 255 4 0
-0.116186 -0.109789 -0.926 255 11 0
-0.113851 -0.109077 -0.92 255 46 0
-0.112692 -0.10949 -0.924 255 24 0
-0.110862 -0.109253 -0.922 255 35 0
-0.109158 -0.109134 -0.921 255 40 0
-0.106757 -0.108305 -0.914 255 97 0
-0.105139 -0.108257 -0.914 255 97 0
-0.103681 -0.108376 -0.915 255 88 0
-0.102108 -0.108376 -0.915 255 88 0
-0.100645 -0.108494 -0.916 255 80 0
-0.0989628 -0.108376 -0.915 255 88 0
-0.0965938 -0.10749 -0.908 255 144 0
-0.0950338 -0.10749 -0.908 255 144 0
-0.0935768 -0.107608 -0.909 255 137 0
-0.0916102 -0.107135 -0.905 255 163 0
-0.0890603 -0.105951 -0.895 228 255 25
-0.0869895 -0.105305 -0.89 160 255 93
-0.0850772 -0.104832 -0.886 122 255 131
-0.0833671 -0.104596 -0.884 107 255 146
-0.0821269 -0.10495 -0.887 131 255 122
-0.0810582 -0.105542 -0.892 188 255 65
-0.0789915 -0.104832 -0.886 122 255 131
-0.0776072 -0.105018 -0.888 141 255 112
-0.0760831 -0.105018 -0.888 141 255 112
-0.0743071 -0.104663 -0.885 114 255 139
-0.0729527 -0.104899 -0.887 131 255 122
-0.0719135 -0.105609 -0.893 202 255 51
-0.070302 -0.105491 -0.892 188 255 65
-0.0688098 -0.10555 -0.893 202 255 51
-0.0672026 -0.105432 -0.892 188 255 65
-0.0655989 -0.105314 -0.891 174 255 79
-0.0640705 -0.105314 -0.891 174 255 79
-0.0626123 -0.105432 -0.892 188 255 65
-0.0611506 -0.10555 -0.893 202 255 51
-0.0596188 -0.10555 -0.893 202 255 51
-0.0582171 -0.105787 -0.895 228 255 25
-0.0566568 -0.10574 -0.895 228 255 25
-0.0552454 -0.105976 -0.897 251 255 2
-0.0537074 -0.105976 -0.897 251 255 2
-0.0519949 -0.105622 -0.894 216 255 37
-0.0506314 -0.105976 -0.897 251 255 2
-0.0490386 -0.105858 -0.896 240 255 13
-0.0473433 -0.105504 -0.893 202 255 51
-0.0458121 -0.105504 -0.893 202 255 51
-0.0442314 -0.105385 -0.892 188 255 65
-0.0427249 -0.105442 -0.893 202 255 51
-0.0412408 -0.10556 -0.894 216 255 37
-0.0397088 -0.10556 -0.894 216 255 37
-0.0381768 -0.10556 -0.894 216 255 37
-0.0366039 -0.105442 -0.893 202 255 51
-0.0351521 -0.105678 -0.895 228 255 25
-0.0335809 -0.10556 -0.894 216 255 37
-0.0320131 -0.105442 -0.893 202 255 51
-0.0304828 -0.105442 -0.893 202 255 51
-0.0289201 -0.105324 -0.892 188 255 65
-0.0273609 -0.105206 -0.891 174 255 79
-0.025863 -0.105324 -0.892 188 255 65
-0.024389 -0.10556 -0.894 216 255 37
-0.0228315 -0.105442 -0.893 202 255 51
-0.0213012 -0.105442 -0.893 202 255 51
-0.0197175 -0.105157 -0.891 174 255 79
-0.0181914 -0.105157 -0.891 174 255 79
-0.0166465 -0.105039 -0.89 160 255 93
-0.0151051 -0.104921 -0.889 150 255 103
-0.0135824 -0.104921 -0.889 150 255 103
-0.0120733 -0.105039 -0.89 160 255 93
-0.0105371 -0.104921 -0.889 150 255 103
-0.00900423 -0.104803 -0.888 141 255 112
-0.00748325 -0.104803 -0.888 141 255 112
-0.00596898 -0.104921 -0.889 150 255 103
-0.00443128 -0.104567 -0.886 122 255 131
-0.00291044 -0.104449 -0.885 114 255 139
-0.00139617 -0.104567 -0.886 122 255 131
0.000121384 -0.104567 -0.886 122 255 131
0.00163894 -0.104567 -0.886 122 255 131
0.00315649 -0.104567 -0.886 122 255 131
0.00466877 -0.104449 -0.885 114 255 139
0.00617763 -0.104331 -0.884 107 255 146
0.00770046 -0.104449 -0.885 114 255 139
0.0092163 -0.104449 -0.885 114 255 139
0.0107079 -0.104213 -0.883 99 255 154
0.0122757 -0.104685 -0.887 131 255 122
0.0138416 -0.105039 -0.89 160 255 93
0.0154005 -0.105275 -0.892 188 255 65
0.0169284 -0.105275 -0.892 188 255 65
0.0184769 -0.105393 -0.893 202 255 51
0.0200288 -0.105511 -0.894 216 255 37
0.0216184 -0.105796 -0.896 240 255 13
0.0231797 -0.105914 -0.897 251 255 2
0.0246892 -0.105796 -0.896 240 255 13
0.0263124 -0.106151 -0.899 255 230 0
0.0280079 -0.106741 -0.904 255 172 0
0.029557 -0.106741 -0.904 255 172 0
0.0311061 -0.106741 -0.904 255 172 0
0.0327636 -0.107095 -0.907 255 150 0
0.0342043 -0.106741 -0.904 255 172 0
0.0357534 -0.106741 -0.904 255 172 0
0.0373438 -0.106859 -0.905 255 163 0
0.0389806 -0.107095 -0.907 255 150 0
0.0405795 -0.107213 -0.908 255 144 0
0.0422747 -0.107568 -0.911 255 121 0
0.0439321 -0.107804 -0.913 255 106 0
0.0455231 -0.107867 -0.913 255 106 0
0.0470886 -0.107867 -0.913 255 106 0
0.0486007 -0.107748 -0.912 255 114 0
0.0501645 -0.107748 -0.912 255 114 0
0.0518984 -0.108103 -0.915 255 88 0
0.0535257 -0.108221 -0.916 255 80 0
0.0547955 -0.10763 -0.911 255 121 0
0.0564812 -0.107867 -0.913 255 106 0
0.0586189 -0.10893 -0.922 255 35 0
0.0600304 -0.108623 -0.919 255 54 0
0.0616068 -0.108623 -0.919 255 54 0
0.064627 -0.111105 -0.94 199 0 0
-0.133104 -0.116425 -0.967 147 0 0
-0.129808 -0.11498 -0.955 161 0 0
-0.127565 -0.114443 -0.951 167 0 0
-0.12553 -0.114082 -0.948 175 0 0
-0.122984 -0.11324 -0.941 195 0 0
-0.120203 -0.112157 -0.932 238 0 0
-0.118416 -0.111984 -0.931 242 0 0
-0.115685 -0.110901 -0.922 255 35 0
-0.113603 -0.11042 -0.918 255 62 0
-0.112146 -0.110541 -0.919 255 54 0
-0.110502 -0.110478 -0.919 255 54 0
-0.108921 -0.110478 -0.919 255 54 0
-0.107107 -0.110238 -0.917 255 71 0
-0.105185 -0.109877 -0.914 255 97 0
-0.103568 -0.109829 -0.914 255 97 0
-0.101997 -0.109829 -0.914 255 97 0
-0.100426 -0.109829 -0.914 255 97 0
-0.0989628 -0.109949 -0.915 255 88 0
-0.0965384 -0.108988 -0.907 255 150 0
-0.0949292 -0.10893 -0.907 255 150 0
-0.0930621 -0.10857 -0.904 255 172 0
-0.0912053 -0.10821 -0.901 255 202 0
-0.0888613 -0.107249 -0.893 202 255 51
-0.0867403 -0.106528 -0.887 131 255 122
-0.0846931 -0.105874 -0.882 90 255 163
-0.0834614 -0.106234 -0.885 114 255 139
-0.081664 -0.105874 -0.882 90 255 163
-0.0806038 -0.106474 -0.887 131 255 122
-0.0795265 -0.107074 -0.892 188 255 65
-0.0774701 -0.106354 -0.886 122 255 131
-0.0760831 -0.106542 -0.888 141 255 112
-0.074475 -0.106422 -0.887 131 255 122
-0.0735284 -0.107262 -0.894 216 255 37
-0.0719135 -0.107142 -0.893 202 255 51
-0.070302 -0.107022 -0.892 188 255 65
-0.0686939 -0.106902 -0.891 174 255 79
-0.0670893 -0.106782 -0.89 160 255 93
-0.0655252 -0.106723 -0.89 160 255 93
-0.0641424 -0.106963 -0.892 188 255 65
-0.0627526 -0.107202 -0.894 216 255 37
-0.0611506 -0.107083 -0.893 202 255 51
-0.0594185 -0.106723 -0.89 160 255 93
-0.058087 -0.107083 -0.893 202 255 51
-0.0565551 -0.107083 -0.893 202 255 51
-0.0550233 -0.107083 -0.893 202 255 51
-0.0534679 -0.107035 -0.893 202 255 51
-0.0519367 -0.107035 -0.893 202 255 51
-0.0505749 -0.107395 -0.896 240 255 13
-0.0490933 -0.107515 -0.897 251 255 2
-0.0475553 -0.107515 -0.897 251 255 2
-0.0458121 -0.107035 -0.893 202 255 51
-0.044281 -0.107035 -0.893 202 255 51
-0.0427977 -0.107155 -0.894 216 255 37
-0.0412648 -0.107155 -0.894 216 255 37
-0.0396875 -0.107035 -0.893 202 255 51
-0.0381341 -0.106973 -0.893 202 255 51
-0.0365629 -0.106853 -0.892 188 255 65
-0.0351129 -0.107093 -0.894 216 255 37
-0.0336185 -0.107213 -0.895 228 255 25
-0.0320489 -0.107093 -0.894 216 255 37
-0.0304487 -0.106853 -0.892 188 255 65
-0.0289201 -0.106853 -0.892 188 255 65
-0.0273916 -0.106853 -0.892 188 255 65
-0.025863 -0.106853 -0.892 188 255 65
-0.0243618 -0.106973 -0.893 202 255 51
-0.0229593 -0.107572 -0.898 255 244 0
-0.0213012 -0.106973 -0.893 202 255 51
-0.0197488 -0.106853 -0.892 188 255 65
-0.0181999 -0.106733 -0.891 174 255 79
-0.0166543 -0.106614 -0.89 160 255 93
-0.0151122 -0.106494 -0.889 150 255 103
-0.0135888 -0.106494 -0.889 150 255 103
-0.0120654 -0.106494 -0.889 150 255 103
-0.0105371 -0.106444 -0.889 150 255 103
-0.00901437 -0.106444 -0.889 150 255 103
-0.00748325 -0.106324 -0.888 141 255 112
-0.00595555 -0.106205 -0.887 131 255 122
-0.00443128 -0.106085 -0.886 122 255 131
-0.00291044 -0.105965 -0.885 114 255 139
-0.0013946 -0.105965 -0.885 114 255 139
0.000121247 -0.105965 -0.885 114 255 139
0.00163709 -0.105965 -0.885 114 255 139
0.00315649 -0.106085 -0.886 122 255 131
0.00466877 -0.105965 -0.885 114 255 139
0.00618462 -0.105965 -0.885 114 255 139
0.00770916 -0.106085 -0.886 122 255 131
0.00924754 -0.106324 -0.888 141 255 112
0.0107079 -0.105726 -0.883 99 255 154
0.0122953 -0.106374 -0.888 141 255 112
0.0137858 -0.106134 -0.886 122 255 131
0.0154077 -0.106853 -0.892 188 255 65
0.0169553 -0.106973 -0.893 202 255 51
0.0185062 -0.107093 -0.894 216 255 37
0.0200606 -0.107213 -0.895 228 255 25
0.0216426 -0.107452 -0.897 251 255 2
0.0231797 -0.107452 -0.897 251 255 2
0.0247168 -0.107452 -0.897 251 255 2
0.0263124 -0.107692 -0.899 255 230 0
0.0279769 -0.108171 -0.903 255 182 0
0.0294916 -0.108051 -0.902 255 192 0
0.0310717 -0.108171 -0.903 255 182 0
0.0326552 -0.108291 -0.904 255 172 0
0.0341287 -0.108051 -0.902 255 192 0
0.035793 -0.10841 -0.905 255 163 0
0.0374676 -0.10877 -0.908 255 144 0
0.0390236 -0.10877 -0.908 255 144 0
0.0406032 -0.108833 -0.908 255 144 0
0.0422529 -0.109073 -0.91 255 129 0
0.0439577 -0.109433 -0.913 255 106 0
0.0455231 -0.109433 -0.913 255 106 0
0.0471401 -0.109552 -0.914 255 97 0
0.0487073 -0.109552 -0.914 255 97 0
0.0502745 -0.109552 -0.914 255 97 0
0.0519551 -0.109792 -0.916 255 80 0
0.053701 -0.110152 -0.919 255 54 0
0.0553368 -0.110272 -0.92 255 46 0
0.0567537 -0.10996 -0.917 255 71 0
0.0585175 -0.11032 -0.92 255 46 0
0.0600957 -0.11032 -0.92 255 46 0
0.0615398 -0.11008 -0.918 255 62 0
-0.135327 -0.118579 -0.971 143 0 0
-0.132416 -0.11748 -0.962 151 0 0
-0.130352 -0.117114 -0.959 156 0 0
-0.127565 -0.116081 -0.951 167 0 0
-0.125398 -0.115593 -0.947 179 0 0
-0.123114 -0.114982 -0.942 191 0 0
-0.120719 -0.11425 -0.936 219 0 0
-0.118034 -0.113221 -0.928 255 0 0
-0.115057 -0.111879 -0.917 255 71 0
-0.113479 -0.111879 -0.917 255 71 0
-0.112024 -0.112001 -0.918 255 62 0
-0.110324 -0.111879 -0.917 255 71 0
-0.108684 -0.111815 -0.917 255 71 0
-0.106874 -0.111571 -0.915 255 88 0
-0.1053 -0.111571 -0.915 255 88 0
-0.103727 -0.111571 -0.915 255 88 0
-0.101997 -0.111401 -0.914 255 97 0
-0.100426 -0.111401 -0.914 255 97 0
-0.0989628 -0.111522 -0.915 255 88 0
-0.0968577 -0.110913 -0.91 255 129 0
-0.0948746 -0.110426 -0.906 255 157 0
-0.0929591 -0.110002 -0.903 255 182 0
-0.0904967 -0.108905 -0.894 216 255 37
-0.0885627 -0.108418 -0.89 160 255 93
-0.0867403 -0.108053 -0.887 131 255 122
-0.0852164 -0.108053 -0.887 131 255 122
-0.0833151 -0.107565 -0.883 99 255 154
-0.0823121 -0.108241 -0.889 150 255 103
-0.0806038 -0.107998 -0.887 131 255 122
-0.0788132 -0.107633 -0.884 107 255 146
-0.0774701 -0.107876 -0.886 122 255 131
-0.0759487 -0.107876 -0.886 122 255 131
-0.0747633 -0.108363 -0.89 160 255 93
-0.0732816 -0.108432 -0.891 174 255 79
-0.0717524 -0.108432 -0.891 174 255 79
-0.0702231 -0.108432 -0.891 174 255 79
-0.0686939 -0.108432 -0.891 174 255 79
-0.0670893 -0.10831 -0.89 160 255 93
-0.0655617 -0.10831 -0.89 160 255 93
-0.0641424 -0.108493 -0.892 188 255 65
-0.0626824 -0.108615 -0.893 202 255 51
-0.0610821 -0.108493 -0.892 188 255 65
-0.0592182 -0.107885 -0.887 131 255 122
-0.0578918 -0.10825 -0.89 160 255 93
-0.0566185 -0.108737 -0.894 216 255 37
-0.0551465 -0.108858 -0.895 228 255 25
-0.0535514 -0.108737 -0.894 216 255 37
-0.0519597 -0.108615 -0.893 202 255 51
-0.050462 -0.108689 -0.894 216 255 37
-0.048765 -0.108324 -0.891 174 255 79
-0.0473433 -0.108567 -0.893 202 255 51
-0.0459147 -0.10881 -0.895 228 255 25
-0.044281 -0.108567 -0.893 202 255 51
-0.0427498 -0.108567 -0.893 202 255 51
-0.0412648 -0.108689 -0.894 216 255 37
-0.0396431 -0.108445 -0.892 188 255 65
-0.0380709 -0.108324 -0.891 174 255 79
-0.0365842 -0.108445 -0.892 188 255 65
-0.0350736 -0.108504 -0.893 202 255 51
-0.0335433 -0.108504 -0.893 202 255 51
-0.0319772 -0.108382 -0.892 188 255 65
-0.0304145 -0.108261 -0.891 174 255 79
-0.0288877 -0.108261 -0.891 174 255 79
-0.0273609 -0.108261 -0.891 174 255 79
-0.025834 -0.108261 -0.891 174 255 79
-0.0243072 -0.108261 -0.891 174 255 79
-0.0229082 -0.108868 -0.896 240 255 13
-0.0213251 -0.108625 -0.894 216 255 37
-0.0197267 -0.108261 -0.891 174 255 79
-0.0181999 -0.108261 -0.891 174 255 79
-0.016673 -0.108261 -0.891 174 255 79
-0.0151122 -0.108018 -0.889 150 255 103
-0.0135735 -0.107896 -0.888 141 255 112
-0.0120518 -0.107896 -0.888 141 255 112
-0.010542 -0.108018 -0.889 150 255 103
-0.00901858 -0.108018 -0.889 150 255 103
-0.00749518 -0.108018 -0.889 150 255 103
-0.00597177 -0.108018 -0.889 150 255 103
-0.00443836 -0.107775 -0.887 131 255 122
-0.00291838 -0.107775 -0.887 131 255 122
-0.00139682 -0.107653 -0.886 122 255 131
0.000121304 -0.107532 -0.885 114 255 139
0.00163786 -0.107532 -0.885 114 255 139
0.00315797 -0.107653 -0.886 122 255 131
0.00467624 -0.107653 -0.886 122 255 131
0.00618751 -0.107532 -0.885 114 255 139
0.00772147 -0.107775 -0.887 131 255 122
0.00922061 -0.107532 -0.885 114 255 139
0.0107614 -0.107775 -0.887 131 255 122
0.0123091 -0.108018 -0.889 150 255 103
0.0138481 -0.108139 -0.89 160 255 93
0.015425 -0.108504 -0.893 202 255 51
0.0169553 -0.108504 -0.893 202 255 51
0.0185062 -0.108625 -0.894 216 255 37
0.0200606 -0.108747 -0.895 228 255 25
0.0216426 -0.10899 -0.897 251 255 2
0.0232055 -0.109111 -0.898 255 244 0
0.0247443 -0.109111 -0.898 255 244 0
0.0262832 -0.109111 -0.898 255 244 0
0.027853 -0.109233 -0.899 255 230 0
0.0294916 -0.109597 -0.902 255 192 0
0.0310717 -0.109719 -0.903 255 182 0
0.0326191 -0.109719 -0.903 255 182 0
0.0341665 -0.109719 -0.903 255 182 0
0.0357743 -0.109904 -0.904 255 172 0
0.0373656 -0.110026 -0.905 255 163 0
0.0390033 -0.110269 -0.907 255 150 0
0.0406479 -0.110512 -0.909 255 137 0
0.0422994 -0.110755 -0.911 255 121 0
0.0439577 -0.110999 -0.913 255 106 0
0.0455231 -0.110999 -0.913 255 106 0
0.0471917 -0.111242 -0.915 255 88 0
0.0488672 -0.111485 -0.917 255 71 0
0.0503845 -0.111363 -0.916 255 80 0
0.0521252 -0.111728 -0.919 255 54 0
0.0537831 -0.111899 -0.92 255 46 0
0.055602 -0.112385 -0.924 255 24 0
0.0567537 -0.111534 -0.917 255 71 0
0.0583267 -0.111534 -0.917 255 71 0
0.0598997 -0.111534 -0.917 255 71 0
0.0624783 -0.113358 -0.932 238 0 0
-0.135885 -0.120748 -0.975 139 0 0
-0.131453 -0.118271 -0.955 161 0 0
-0.129808 -0.118271 -0.955 161 0 0
-0.12776 -0.117899 -0.952 165 0 0
-0.125663 -0.117471 -0.949 172 0 0
-0.123376 -0.116852 -0.944 186 0 0
-0.120461 -0.115614 -0.934 229 0 0
-0.117835 -0.114624 -0.926 255 11 0
-0.115057 -0.113457 -0.917 255 71 0
-0.113727 -0.113704 -0.919 255 54 0
-0.112146 -0.113704 -0.919 255 54 0
-0.110564 -0.113704 -0.919 255 54 0
-0.10839 -0.113086 -0.914 255 97 0
-0.107107 -0.113393 -0.917 255 71 0
-0.10507 -0.112898 -0.913 255 106 0
-0.10384 -0.113269 -0.916 255 80 0
-0.102265 -0.113269 -0.916 255 80 0
-0.100426 -0.112972 -0.914 255 97 0
-0.0988546 -0.112972 -0.914 255 97 0
-0.097177 -0.112849 -0.913 255 106 0
-0.0955029 -0.112725 -0.912 255 114 0
-0.0929053 -0.111489 -0.902 255 192 0
-0.0905979 -0.110565 -0.895 228 255 25
-0.0882642 -0.109577 -0.887 131 255 122
-0.0867403 -0.109577 -0.887 131 255 122
-0.0850243 -0.10933 -0.885 114 255 139
-0.0840699 -0.110071 -0.891 174 255 79
-0.0821686 -0.109577 -0.887 131 255 122
-0.0801494 -0.108904 -0.882 90 255 163
-0.0790807 -0.109522 -0.887 131 255 122
-0.0773827 -0.109275 -0.885 114 255 139
-0.0762916 -0.109892 -0.89 160 255 93
-0.0744273 -0.109398 -0.886 122 255 131
-0.0731528 -0.109768 -0.889 150 255 103
-0.0718329 -0.110085 -0.892 188 255 65
-0.070302 -0.110085 -0.892 188 255 65
-0.0688481 -0.110209 -0.893 202 255 51
-0.0673908 -0.110332 -0.894 216 255 37
-0.0655617 -0.109838 -0.89 160 255 93
-0.0639622 -0.109715 -0.889 150 255 103
-0.062296 -0.109468 -0.887 131 255 122
-0.0608767 -0.109654 -0.889 150 255 103
-0.0594853 -0.109901 -0.891 174 255 79
-0.0579569 -0.109901 -0.891 174 255 79
-0.0566185 -0.110271 -0.894 216 255 37
-0.0550849 -0.110271 -0.894 216 255 37
-0.0535514 -0.110271 -0.894 216 255 37
-0.052076 -0.110394 -0.895 228 255 25
-0.0505408 -0.110394 -0.895 228 255 25
-0.0490055 -0.110394 -0.895 228 255 25
-0.0473963 -0.110222 -0.894 216 255 37
-0.0458121 -0.110099 -0.893 202 255 51
-0.0443801 -0.110345 -0.895 228 255 25
-0.0427498 -0.110099 -0.893 202 255 51
-0.0412648 -0.110222 -0.894 216 255 37
-0.0396431 -0.109975 -0.892 188 255 65
-0.0379854 -0.109606 -0.889 150 255 103
-0.0365842 -0.109975 -0.892 188 255 65
-0.0350547 -0.109975 -0.892 188 255 65
-0.0335253 -0.109975 -0.892 188 255 65
-0.03196 -0.109852 -0.891 174 255 79
-0.0304323 -0.109852 -0.891 174 255 79
-0.0288877 -0.109788 -0.891 174 255 79
-0.0273609 -0.109788 -0.891 174 255 79
-0.025805 -0.109665 -0.89 160 255 93
-0.0242799 -0.109665 -0.89 160 255 93
-0.0227548 -0.109665 -0.89 160 255 93
-0.0212774 -0.109911 -0.892 188 255 65
-0.0197267 -0.109788 -0.891 174 255 79
-0.0181999 -0.109788 -0.891 174 255 79
-0.0166543 -0.109665 -0.89 160 255 93
-0.0151122 -0.109542 -0.889 150 255 103
-0.0135735 -0.109418 -0.888 141 255 112
-0.0120518 -0.109418 -0.888 141 255 112
-0.010542 -0.109542 -0.889 150 255 103
-0.00901858 -0.109542 -0.889 150 255 103
-0.00749518 -0.109542 -0.889 150 255 103
-0.00596505 -0.109418 -0.888 141 255 112
-0.00443335 -0.109172 -0.886 122 255 131
-0.00291509 -0.109172 -0.886 122 255 131
-0.00139682 -0.109172 -0.886 122 255 131
0.000121304 -0.109049 -0.885 114 255 139
0.00163786 -0.109049 -0.885 114 255 139
0.00315797 -0.109172 -0.886 122 255 131
0.00466568 -0.108926 -0.884 107 255 146
0.00618052 -0.108926 -0.884 107 255 146
0.00770406 -0.109049 -0.885 114 255 139
0.00922061 -0.109049 -0.885 114 255 139
0.0107857 -0.109542 -0.889 150 255 103
0.0123368 -0.109788 -0.891 174 255 79
0.0138792 -0.109911 -0.892 188 255 65
0.0154423 -0.110158 -0.894 216 255 37
0.0169932 -0.110281 -0.895 228 255 25
0.0185269 -0.110281 -0.895 228 255 25
0.0201054 -0.110527 -0.897 251 255 2
0.0216426 -0.110527 -0.897 251 255 2
0.0232055 -0.110651 -0.898 255 244 0
0.0247443 -0.110651 -0.898 255 244 0
0.0262832 -0.110651 -0.898 255 244 0
0.027822 -0.110651 -0.898 255 244 0
0.0294589 -0.11102 -0.901 255 202 0
0.0311243 -0.111455 -0.904 255 172 0
0.0326381 -0.111332 -0.903 255 182 0
0.0342243 -0.111455 -0.904 255 172 0
0.0357743 -0.111455 -0.904 255 172 0
0.037283 -0.111332 -0.903 255 182 0
0.0389603 -0.111702 -0.906 255 157 0
0.0406479 -0.112071 -0.909 255 137 0
0.0423458 -0.112441 -0.912 255 114 0
0.0439577 -0.112565 -0.913 255 106 0
0.045573 -0.112688 -0.914 255 97 0
0.0471401 -0.112688 -0.914 255 97 0
0.0487606 -0.112811 -0.915 255 88 0
0.0504067 -0.112984 -0.916 255 80 0
0.052205 -0.113478 -0.92 255 46 0
0.0537831 -0.113478 -0.92 255 46 0
0.0554816 -0.113724 -0.922 255 35 0
0.0570632 -0.113724 -0.922 255 35 0
0.0583903 -0.113231 -0.918 255 62 0
0.0600304 -0.113354 -0.919 255 54 0
-0.135133 -0.12175 -0.969 145 0 0
-0.131453 -0.119916 -0.955 161 0 0
-0.128992 -0.119163 -0.949 172 0 0
-0.127492 -0.119288 -0.95 169 0 0
-0.125723 -0.119163 -0.949 172 0 0
-0.123114 -0.118227 -0.942 191 0 0
-0.120461 -0.117223 -0.934 229 0 0
-0.117835 -0.116219 -0.926 255 11 0
-0.114358 -0.114336 -0.911 255 121 0
-0.114469 -0.116039 -0.925 255 17 0
-0.112024 -0.115161 -0.918 255 62 0
-0.110444 -0.115161 -0.918 255 62 0
-0.108034 -0.114283 -0.911 255 121 0
-0.106817 -0.114659 -0.914 255 97 0
-0.10507 -0.114469 -0.913 255 106 0
-0.10384 -0.114845 -0.916 255 80 0
-0.10193 -0.114469 -0.913 255 106 0
-0.10069 -0.114845 -0.916 255 80 0
-0.0990061 -0.114719 -0.915 255 88 0
-0.0970706 -0.114293 -0.912 255 114 0
-0.0953982 -0.114168 -0.911 255 121 0
-0.0929053 -0.11304 -0.902 255 192 0
-0.0905445 -0.112038 -0.894 216 255 37
-0.0884104 -0.111286 -0.888 141 255 112
-0.0867403 -0.111102 -0.887 131 255 122
-0.0849282 -0.110726 -0.884 107 255 146
-0.0833151 -0.110601 -0.883 99 255 154
-0.0825392 -0.111603 -0.891 174 255 79
-0.0804629 -0.110851 -0.885 114 255 139
-0.0789024 -0.110795 -0.885 114 255 139
-0.0773827 -0.110795 -0.885 114 255 139
-0.0760344 -0.111045 -0.887 131 255 122
-0.0744273 -0.11092 -0.886 122 255 131
-0.0730705 -0.11117 -0.888 141 255 112
-0.0717873 -0.111546 -0.891 174 255 79
-0.0701785 -0.111421 -0.89 160 255 93
-0.0688481 -0.111742 -0.893 202 255 51
-0.0671646 -0.111492 -0.891 174 255 79
-0.0657091 -0.111617 -0.892 188 255 65
-0.0637464 -0.110866 -0.886 122 255 131
-0.0624364 -0.111241 -0.889 150 255 103
-0.0610476 -0.111492 -0.891 174 255 79
-0.0595184 -0.111492 -0.891 174 255 79
-0.0580219 -0.111555 -0.892 188 255 65
-0.0566818 -0.11193 -0.895 228 255 25
-0.0551465 -0.11193 -0.895 228 255 25
-0.0535514 -0.111805 -0.894 216 255 37
-0.0520178 -0.111805 -0.894 216 255 37
-0.0504843 -0.111805 -0.894 216 255 37
-0.0489507 -0.111805 -0.894 216 255 37
-0.0474172 -0.111805 -0.894 216 255 37
-0.045935 -0.11193 -0.895 228 255 25
-0.0441818 -0.11138 -0.891 174 255 79
-0.0427977 -0.111755 -0.894 216 255 37
-0.0411725 -0.111505 -0.892 188 255 65
-0.0396875 -0.11163 -0.893 202 255 51
-0.0381136 -0.111505 -0.892 188 255 65
-0.0365842 -0.111505 -0.892 188 255 65
-0.0350547 -0.111505 -0.892 188 255 65
-0.0334877 -0.11138 -0.891 174 255 79
-0.03196 -0.11138 -0.891 174 255 79
-0.0303981 -0.111255 -0.89 160 255 93
-0.0288721 -0.111255 -0.89 160 255 93
-0.0273461 -0.111255 -0.89 160 255 93
-0.0258491 -0.11138 -0.891 174 255 79
-0.0243214 -0.11138 -0.891 174 255 79
-0.0227804 -0.111316 -0.891 174 255 79
-0.0212058 -0.111066 -0.889 150 255 103
-0.0197046 -0.111191 -0.89 160 255 93
-0.018159 -0.111066 -0.889 150 255 103
-0.0165982 -0.110816 -0.887 131 255 122
-0.0150952 -0.110941 -0.888 141 255 112
-0.0135735 -0.110941 -0.888 141 255 112
-0.0120518 -0.110941 -0.888 141 255 112
-0.010542 -0.111066 -0.889 150 255 103
-0.00899829 -0.110816 -0.887 131 255 122
-0.00746145 -0.110566 -0.885 114 255 139
-0.00595162 -0.110691 -0.886 122 255 131
-0.00443335 -0.110691 -0.886 122 255 131
-0.0029118 -0.110566 -0.885 114 255 139
-0.00139525 -0.110566 -0.885 114 255 139
0.000121304 -0.110566 -0.885 114 255 139
0.00163971 -0.110691 -0.886 122 255 131
0.00315797 -0.110691 -0.886 122 255 131
0.00466568 -0.110441 -0.884 107 255 146
0.0061945 -0.110691 -0.886 122 255 131
0.00771277 -0.110691 -0.886 122 255 131
0.00921019 -0.110441 -0.884 107 255 146
0.0107978 -0.111191 -0.89 160 255 93
0.0123368 -0.111316 -0.891 174 255 79
0.0138792 -0.11144 -0.892 188 255 65
0.0154423 -0.11169 -0.894 216 255 37
0.0169743 -0.11169 -0.894 216 255 37
0.0185269 -0.111815 -0.895 228 255 25
0.0201279 -0.11219 -0.898 255 244 0
0.0216426 -0.112065 -0.897 251 255 2
0.0231797 -0.112065 -0.897 251 255 2
0.0247312 -0.11213 -0.897 251 255 2
0.0262985 -0.112255 -0.898 255 244 0
0.0278692 -0.11238 -0.899 255 230 0
0.0295088 -0.112755 -0.902 255 192 0
0.0310554 -0.112755 -0.902 255 192 0
0.032602 -0.112755 -0.902 255 192 0
0.0341864 -0.112881 -0.903 255 182 0
0.035893 -0.113381 -0.907 255 150 0
0.0374482 -0.113381 -0.907 255 150 0
0.0390463 -0.113506 -0.908 255 144 0
0.0406479 -0.113631 -0.909 255 137 0
0.0423922 -0.114131 -0.913 255 106 0
0.0439577 -0.114131 -0.913 255 106 0
0.045573 -0.114256 -0.914 255 97 0
0.0472125 -0.114431 -0.915 255 88 0
0.0488354 -0.114556 -0.916 255 80 0
0.0504067 -0.114556 -0.916 255 80 0
0.0520347 -0.114681 -0.917 255 71 0
0.0536077 -0.114681 -0.917 255 71 0
0.0553011 -0.114931 -0.919 255 54 0
0.0569394 -0.115056 -0.92 255 46 0
0.058772 -0.115557 -0.924 255 24 0
0.0607489 -0.116307 -0.93 247 0 0
-0.138073 -0.124567 -0.978 136 0 0
-0.13332 -0.121764 -0.956 160 0 0
-0.131397 -0.12151 -0.954 162 0 0
-0.129672 -0.121434 -0.954 162 0 0
-0.127492 -0.120925 -0.95 169 0 0
-0.125458 -0.120543 -0.947 179 0 0
-0.122389 -0.119143 -0.936 219 0 0
-0.119558 -0.117941 -0.927 255 4 0
-0.117453 -0.117432 -0.923 255 30 0
-0.115237 -0.116796 -0.918 255 62 0
-0.113656 -0.116796 -0.918 255 62 0
-0.11178 -0.116487 -0.916 255 80 0
-0.110324 -0.116614 -0.917 255 71 0
-0.108864 -0.116741 -0.918 255 62 0
-0.107168 -0.116614 -0.917 255 71 0
-0.10536 -0.116359 -0.915 255 88 0
-0.103613 -0.116166 -0.914 255 97 0
-0.10193 -0.116039 -0.913 255 106 0
-0.10036 -0.116039 -0.913 255 106 0
-0.0988979 -0.116166 -0.914 255 97 0
-0.0973261 -0.116166 -0.914 255 97 0
-0.0945605 -0.114718 -0.903 255 182 0
-0.0920813 -0.113575 -0.894 216 255 37
-0.0901394 -0.113067 -0.89 160 255 93
-0.08851 -0.11294 -0.889 150 255 103
-0.0865905 -0.112431 -0.885 114 255 139
-0.0853125 -0.112753 -0.888 141 255 112
-0.0837869 -0.112753 -0.888 141 255 112
-0.0818907 -0.112245 -0.884 107 255 146
-0.0807357 -0.112753 -0.888 141 255 112
-0.0788532 -0.112245 -0.884 107 255 146
-0.0777719 -0.11288 -0.889 150 255 103
-0.075863 -0.112315 -0.885 114 255 139
-0.0745113 -0.112569 -0.887 131 255 122
-0.073235 -0.11295 -0.89 160 255 93
-0.0717068 -0.11295 -0.89 160 255 93
-0.0700996 -0.112823 -0.889 150 255 103
-0.0684959 -0.112696 -0.888 141 255 112
-0.0668631 -0.112514 -0.887 131 255 122
-0.0654881 -0.112768 -0.889 150 255 103
-0.0638903 -0.112641 -0.888 141 255 112
-0.0625067 -0.112895 -0.89 160 255 93
-0.0609791 -0.112895 -0.89 160 255 93
-0.0594516 -0.112895 -0.89 160 255 93
-0.0581193 -0.113275 -0.893 202 255 51
-0.0567134 -0.113529 -0.895 228 255 25
-0.0551465 -0.113466 -0.895 228 255 25
-0.0534915 -0.113212 -0.893 202 255 51
-0.0519015 -0.113085 -0.892 188 255 65
-0.0504843 -0.113339 -0.894 216 255 37
-0.0489507 -0.113339 -0.894 216 255 37
-0.0474172 -0.113339 -0.894 216 255 37
-0.0458837 -0.113339 -0.894 216 255 37
-0.0443997 -0.113466 -0.895 228 255 25
-0.0427687 -0.113212 -0.893 202 255 51
-0.0410983 -0.112832 -0.89 160 255 93
-0.0396431 -0.113035 -0.892 188 255 65
-0.0381564 -0.113162 -0.893 202 255 51
-0.0365432 -0.112909 -0.891 174 255 79
-0.0350154 -0.112909 -0.891 174 255 79
-0.0334877 -0.112909 -0.891 174 255 79
-0.03196 -0.112909 -0.891 174 255 79
-0.0303981 -0.112782 -0.89 160 255 93
-0.0288721 -0.112782 -0.89 160 255 93
-0.0273461 -0.112782 -0.89 160 255 93
-0.0259071 -0.113162 -0.893 202 255 51
-0.0244306 -0.113416 -0.895 228 255 25
-0.0228192 -0.113035 -0.892 188 255 65
-0.0212421 -0.112782 -0.89 160 255 93
-0.0197161 -0.112782 -0.89 160 255 93
-0.0181696 -0.112655 -0.889 150 255 103
-0.0166079 -0.112402 -0.887 131 255 122
-0.015087 -0.112402 -0.887 131 255 122
-0.0135735 -0.112463 -0.888 141 255 112
-0.0120383 -0.112336 -0.887 131 255 122
-0.0105183 -0.112336 -0.887 131 255 122
-0.00899829 -0.112336 -0.887 131 255 122
-0.00746988 -0.11221 -0.886 122 255 131
-0.00595162 -0.11221 -0.886 122 255 131
-0.00442835 -0.112083 -0.885 114 255 139
-0.0029118 -0.112083 -0.885 114 255 139
-0.00139682 -0.11221 -0.886 122 255 131
0.000121441 -0.11221 -0.886 122 255 131
0.00163971 -0.11221 -0.886 122 255 131
0.00315084 -0.111956 -0.884 107 255 146
0.00466568 -0.111956 -0.884 107 255 146
0.00618052 -0.111956 -0.884 107 255 146
0.00770406 -0.112083 -0.885 114 255 139
0.00922061 -0.112083 -0.885 114 255 139
0.0107978 -0.112716 -0.89 160 255 93
0.0123506 -0.11297 -0.892 188 255 65
0.0138636 -0.112843 -0.891 174 255 79
0.0154167 -0.113035 -0.892 188 255 65
0.0169652 -0.113162 -0.893 202 255 51
0.0185792 -0.113669 -0.897 251 255 2
0.0201396 -0.113796 -0.898 255 244 0
0.0216552 -0.113669 -0.897 251 255 2
0.023219 -0.113796 -0.898 255 244 0
0.0247312 -0.113669 -0.897 251 255 2
0.0262692 -0.113669 -0.897 251 255 2
0.0279312 -0.114176 -0.901 255 202 0
0.0294761 -0.114176 -0.901 255 202 0
0.0308832 -0.113669 -0.897 251 255 2
0.0325297 -0.114049 -0.9 255 216 0
0.0342243 -0.114556 -0.904 255 172 0
0.035893 -0.114936 -0.907 255 150 0
0.0374895 -0.115063 -0.908 255 144 0
0.0390893 -0.11519 -0.909 255 137 0
0.0407821 -0.11557 -0.912 255 114 0
0.0424574 -0.115874 -0.914 255 97 0
0.0440252 -0.115874 -0.914 255 97 0
0.0455432 -0.115748 -0.913 255 106 0
0.0471609 -0.115874 -0.914 255 97 0
0.0487288 -0.115874 -0.914 255 97 0
0.0504067 -0.116128 -0.916 255 80 0
0.0519213 -0.116001 -0.915 255 88 0
0.0537247 -0.116508 -0.919 255 54 0
0.0548799 -0.115621 -0.912 255 114 0
0.0568156 -0.116382 -0.918 255 62 0
0.0592502 -0.118095 -0.931 242 0 0
0.0609788 -0.118349 -0.933 234 0 0
-0.136661 -0.124962 -0.968 147 0 0
-0.13332 -0.123413 -0.956 160 0 0
-0.131948 -0.123671 -0.958 157 0 0
-0.129888 -0.123284 -0.955 161 0 0
-0.127492 -0.122562 -0.95 169 0 0
-0.125326 -0.122046 -0.946 182 0 0
-0.121997 -0.120369 -0.933 234 0 0
-0.119358 -0.119337 -0.925 255 17 0
-0.116817 -0.118376 -0.918 255 62 0
-0.115362 -0.118505 -0.919 255 54 0
-0.113285 -0.11799 -0.915 255 88 0
-0.11171 -0.11799 -0.915 255 88 0
-0.110375 -0.118248 -0.917 255 71 0
-0.108864 -0.118321 -0.918 255 62 0
-0.107402 -0.11845 -0.919 255 54 0
-0.10559 -0.118192 -0.917 255 71 0
-0.103445 -0.117548 -0.912 255 114 0
-0.10193 -0.11761 -0.913 255 106 0
-0.10025 -0.117481 -0.912 255 114 0
-0.0990061 -0.117868 -0.915 255 88 0
-0.0961548 -0.116322 -0.903 255 182 0
-0.0935542 -0.115034 -0.893 202 255 51
-0.0917723 -0.114726 -0.891 174 255 79
-0.0900381 -0.114468 -0.889 150 255 103
-0.0882113 -0.114082 -0.886 122 255 131
-0.0866883 -0.114082 -0.886 122 255 131
-0.0849731 -0.113824 -0.884 107 255 146
-0.0833151 -0.113636 -0.883 99 255 154
-0.0818907 -0.113764 -0.884 107 255 146
-0.0801901 -0.113507 -0.882 90 255 163
-0.0793884 -0.114537 -0.89 160 255 93
-0.077422 -0.113893 -0.885 114 255 139
-0.076073 -0.11415 -0.887 131 255 122
-0.0745113 -0.114093 -0.887 131 255 122
-0.0731528 -0.11435 -0.889 150 255 103
-0.0716262 -0.11435 -0.889 150 255 103
-0.0698631 -0.113964 -0.886 122 255 131
-0.0682645 -0.113835 -0.885 114 255 139
-0.0669711 -0.114221 -0.888 141 255 112
-0.0653726 -0.114093 -0.887 131 255 122
-0.0638903 -0.114166 -0.888 141 255 112
-0.0625067 -0.114423 -0.89 160 255 93
-0.0609106 -0.114294 -0.889 150 255 103
-0.0593848 -0.114294 -0.889 150 255 103
-0.0579241 -0.114423 -0.89 160 255 93
-0.0564599 -0.114551 -0.891 174 255 79
-0.0551156 -0.114937 -0.894 216 255 37
-0.0534613 -0.11468 -0.892 188 255 65
-0.0517851 -0.114359 -0.89 160 255 93
-0.0503149 -0.114487 -0.891 174 255 79
-0.0488412 -0.114616 -0.892 188 255 65
-0.0473642 -0.114744 -0.893 202 255 51
-0.0458323 -0.114744 -0.893 202 255 51
-0.0443005 -0.114744 -0.893 202 255 51
-0.0428166 -0.114873 -0.894 216 255 37
-0.0413754 -0.11513 -0.896 240 255 13
-0.039705 -0.114744 -0.893 202 255 51
-0.0382159 -0.114873 -0.894 216 255 37
-0.0365593 -0.114487 -0.891 174 255 79
-0.0350547 -0.114565 -0.892 188 255 65
-0.0335253 -0.114565 -0.892 188 255 65
-0.0319959 -0.114565 -0.892 188 255 65
-0.0304323 -0.114437 -0.891 174 255 79
-0.0288721 -0.114309 -0.89 160 255 93
-0.0273154 -0.11418 -0.889 150 255 103
-0.0258201 -0.114309 -0.89 160 255 93
-0.0243487 -0.114565 -0.892 188 255 65
-0.0228192 -0.114565 -0.892 188 255 65
-0.0212421 -0.114309 -0.89 160 255 93
-0.0196939 -0.11418 -0.889 150 255 103
-0.01819 -0.114309 -0.89 160 255 93
-0.0166453 -0.11418 -0.889 150 255 103
-0.015121 -0.11418 -0.889 150 255 103
-0.0135661 -0.113923 -0.887 131 255 122
-0.0120045 -0.113538 -0.884 107 255 146
-0.0105007 -0.113666 -0.885 114 255 139
-0.00900354 -0.113923 -0.887 131 255 122
-0.00749955 -0.11418 -0.889 150 255 103
-0.00596853 -0.114052 -0.888 141 255 112
-0.00443093 -0.113666 -0.885 114 255 139
-0.0029135 -0.113666 -0.885 114 255 139
-0.00139922 -0.113923 -0.887 131 255 122
0.000121649 -0.113923 -0.887 131 255 122
0.00163696 -0.113538 -0.884 107 255 146
0.00314911 -0.113409 -0.883 99 255 154
0.0046684 -0.113538 -0.884 107 255 146
0.00619112 -0.113666 -0.885 114 255 139
0.00770855 -0.113666 -0.885 114 255 139
0.00921557 -0.113538 -0.884 107 255 146
0.0108041 -0.114309 -0.89 160 255 93
0.012344 -0.114437 -0.891 174 255 79
0.0138873 -0.114565 -0.892 188 255 65
0.0153994 -0.114437 -0.891 174 255 79
0.0168892 -0.11418 -0.889 150 255 103
0.0185377 -0.114951 -0.895 228 255 25
0.0201172 -0.115208 -0.897 251 255 2
0.0216552 -0.115208 -0.897 251 255 2
0.0231932 -0.115208 -0.897 251 255 2
0.0247312 -0.115208 -0.897 251 255 2
0.0262692 -0.115208 -0.897 251 255 2
0.0279622 -0.11585 -0.902 255 192 0
0.0294761 -0.115721 -0.901 255 202 0
0.0309521 -0.115464 -0.899 255 230 0
0.0326381 -0.115978 -0.903 255 182 0
0.0343 -0.116364 -0.906 255 157 0
0.035893 -0.116492 -0.907 255 150 0
0.0374647 -0.116543 -0.907 255 150 0
0.0390636 -0.116672 -0.908 255 144 0
0.0408448 -0.117314 -0.913 255 106 0
0.0424109 -0.117314 -0.913 255 106 0
0.0439771 -0.117314 -0.913 255 106 0
0.0454933 -0.117186 -0.912 255 114 0
0.0471094 -0.117314 -0.913 255 106 0
0.0487288 -0.117443 -0.914 255 97 0
0.0503517 -0.117571 -0.915 255 88 0
0.0519213 -0.117571 -0.915 255 88 0
0.0537831 -0.118214 -0.92 255 46 0
0.0553921 -0.11828 -0.92 255 46 0
0.0571569 -0.118665 -0.923 255 30 0
0.0587411 -0.118665 -0.923 255 30 0
-0.139973 -0.128135 -0.979 135 0 0
-0.134895 -0.124994 -0.955 161 0 0
-0.13318 -0.12493 -0.955 161 0 0
-0.131672 -0.125061 -0.956 160 0 0
-0.129888 -0.12493 -0.955 161 0 0
-0.127303 -0.124014 -0.948 175 0 0
-0.124796 -0.123153 -0.942 191 0 0
-0.121997 -0.121976 -0.933 234 0 0
-0.119487 -0.121061 -0.926 255 11 0
-0.117001 -0.120146 -0.919 255 54 0
-0.115111 -0.119827 -0.917 255 71 0
-0.113409 -0.119696 -0.916 255 80 0
-0.111588 -0.119435 -0.914 255 97 0
-0.110375 -0.119827 -0.917 255 71 0
-0.108915 -0.119957 -0.918 255 62 0
-0.107285 -0.119901 -0.918 255 62 0
-0.105475 -0.11964 -0.916 255 80 0
-0.103559 -0.119248 -0.913 255 106 0
-0.102099 -0.119379 -0.914 255 97 0
-0.0997002 -0.118397 -0.907 255 150 0
-0.0984651 -0.118789 -0.91 255 129 0
-0.0958353 -0.117484 -0.9 255 216 0
-0.0935542 -0.11657 -0.893 202 255 51
-0.0912972 -0.115656 -0.886 122 255 131
-0.0898356 -0.115736 -0.887 131 255 122
-0.0880122 -0.115345 -0.884 107 255 146
-0.0865905 -0.115475 -0.885 114 255 139
-0.0852615 -0.115736 -0.887 131 255 122
-0.0829815 -0.114692 -0.879 57 254 196
-0.0810998 -0.11417 -0.875 26 255 227
-0.0802811 -0.115153 -0.883 99 255 154
-0.0789424 -0.115414 -0.885 114 255 139
-0.0775969 -0.115675 -0.887 131 255 122
-0.0761588 -0.115805 -0.888 141 255 112
-0.0745491 -0.115675 -0.887 131 255 122
-0.0731076 -0.115805 -0.888 141 255 112
-0.0715456 -0.115747 -0.888 141 255 112
-0.0698631 -0.115486 -0.886 122 255 131
-0.0684959 -0.115747 -0.888 141 255 112
-0.0669711 -0.115747 -0.888 141 255 112
-0.0654463 -0.115747 -0.888 141 255 112
-0.0639214 -0.115747 -0.888 141 255 112
-0.0623966 -0.115747 -0.888 141 255 112
-0.0608421 -0.11569 -0.888 141 255 112
-0.0593848 -0.11582 -0.889 150 255 103
-0.0577939 -0.11569 -0.888 141 255 112
-0.0562698 -0.11569 -0.888 141 255 112
-0.0548073 -0.11582 -0.889 150 255 103
-0.0532216 -0.11569 -0.888 141 255 112
-0.0516393 -0.11556 -0.887 131 255 122
-0.0502299 -0.11582 -0.889 150 255 103
-0.048677 -0.115756 -0.889 150 255 103
-0.0472581 -0.116016 -0.891 174 255 79
-0.0458323 -0.116277 -0.893 202 255 51
-0.0443005 -0.116277 -0.893 202 255 51
-0.0428166 -0.116407 -0.894 216 255 37
-0.0412368 -0.116277 -0.893 202 255 51
-0.0397939 -0.116537 -0.895 228 255 25
-0.0381304 -0.116147 -0.892 188 255 65
-0.0365593 -0.116016 -0.891 174 255 79
-0.0349916 -0.115886 -0.89 160 255 93
-0.0335401 -0.116147 -0.892 188 255 65
-0.03201 -0.116147 -0.892 188 255 65
-0.0303981 -0.115835 -0.89 160 255 93
-0.0288721 -0.115835 -0.89 160 255 93
-0.0272847 -0.115575 -0.888 141 255 112
-0.0257621 -0.115575 -0.888 141 255 112
-0.0242395 -0.115575 -0.888 141 255 112
-0.0227425 -0.115705 -0.889 150 255 103
-0.0212421 -0.115835 -0.89 160 255 93
-0.0196939 -0.115705 -0.889 150 255 103
-0.0181696 -0.115705 -0.889 150 255 103
-0.0166453 -0.115705 -0.889 150 255 103
-0.015121 -0.115705 -0.889 150 255 103
-0.0135661 -0.115445 -0.887 131 255 122
-0.0120317 -0.115314 -0.886 122 255 131
-0.0105125 -0.115314 -0.886 122 255 131
-0.00900354 -0.115445 -0.887 131 255 122
-0.00749955 -0.115705 -0.889 150 255 103
-0.00595509 -0.115314 -0.886 122 255 131
-0.00443594 -0.115314 -0.886 122 255 131
-0.0029135 -0.115184 -0.885 114 255 139
-0.00139764 -0.115314 -0.886 122 255 131
0.000121512 -0.115314 -0.886 122 255 131
0.00163881 -0.115184 -0.885 114 255 139
0.00315268 -0.115054 -0.884 107 255 146
0.0046684 -0.115054 -0.884 107 255 146
0.00619811 -0.115314 -0.886 122 255 131
0.00769113 -0.114924 -0.883 99 255 154
0.00921557 -0.115054 -0.884 107 255 146
0.0108284 -0.116095 -0.892 188 255 65
0.0123301 -0.115835 -0.89 160 255 93
0.0138561 -0.115835 -0.89 160 255 93
0.0153822 -0.115835 -0.89 160 255 93
0.0169462 -0.116095 -0.892 188 255 65
0.0185584 -0.116616 -0.896 240 255 13
0.0201172 -0.116746 -0.897 251 255 2
0.0216552 -0.116746 -0.897 251 255 2
0.023219 -0.116876 -0.898 255 244 0
0.0247312 -0.116746 -0.897 251 255 2
0.0262985 -0.116876 -0.898 255 244 0
0.0279622 -0.117397 -0.902 255 192 0
0.0294761 -0.117267 -0.901 255 202 0
0.0310898 -0.117527 -0.903 255 182 0
0.0327972 -0.1181 -0.907 255 150 0
0.0343909 -0.11823 -0.908 255 144 0
0.0359484 -0.11823 -0.908 255 144 0
0.0374234 -0.11797 -0.906 255 157 0
0.0390205 -0.1181 -0.907 255 150 0
0.0408001 -0.118751 -0.912 255 114 0
0.0423645 -0.118751 -0.912 255 114 0
0.0439771 -0.118881 -0.913 255 106 0
0.0455432 -0.118881 -0.913 255 106 0
0.0471094 -0.118881 -0.913 255 106 0
0.0486755 -0.118881 -0.913 255 106 0
0.0504348 -0.119338 -0.916 255 80 0
0.0519502 -0.119208 -0.915 255 88 0
0.0538716 -0.119989 -0.921 255 40 0
0.0553319 -0.119729 -0.919 255 54 0
0.0572807 -0.120511 -0.925 255 17 0
0.0582956 -0.119338 -0.916 255 80 0
-0.138972 -0.128896 -0.972 142 0 0
-0.135036 -0.126774 -0.956 160 0 0
-0.133527 -0.126906 -0.957 158 0 0
-0.13181 -0.126841 -0.957 158 0 0
-0.129208 -0.125914 -0.95 169 0 0
-0.127168 -0.125516 -0.947 179 0 0
-0.124211 -0.124191 -0.937 214 0 0
-0.121081 -0.122656 -0.926 255 11 0
-0.11897 -0.122127 -0.922 255 35 0
-0.116746 -0.121464 -0.917 255 71 0
-0.115041 -0.121332 -0.916 255 80 0
-0.113161 -0.121009 -0.914 255 97 0
-0.111588 -0.121009 -0.914 255 97 0
-0.110135 -0.121141 -0.915 255 88 0
-0.108797 -0.121406 -0.917 255 71 0
-0.106984 -0.121141 -0.915 255 88 0
-0.105245 -0.120952 -0.914 255 97 0
-0.103559 -0.12082 -0.913 255 106 0
-0.102099 -0.120952 -0.914 255 97 0
