ply
format ascii 1.0
element vertex 1230
property float32 x
property float32 y
property float32 z
property uchar diffuse_red
property uchar diffuse_green
property uchar diffuse_blue
end_header
0.0210394 -0.104457 -0.872 97 255 156
0.0225595 -0.104577 -0.873 107 255 146
0.0239452 -0.104098 -0.869 73 254 180
0.0254637 -0.104218 -0.87 81 255 172
0.0269855 -0.104338 -0.871 89 254 164
0.0285107 -0.104457 -0.872 97 255 156
0.030005 -0.104457 -0.872 97 255 156
0.0315354 -0.104577 -0.873 107 255 146
0.0331071 -0.104817 -0.875 127 255 126
0.034646 -0.104937 -0.876 136 255 117
0.0361059 -0.104817 -0.875 127 255 126
0.0376053 -0.104817 -0.875 127 255 126
0.0392617 -0.105237 -0.878 156 255 97
0.0407207 -0.105118 -0.877 146 255 107
0.0422726 -0.105237 -0.878 156 255 97
0.043778 -0.105237 -0.878 156 255 97
0.0452834 -0.105237 -0.878 156 255 97
0.0467889 -0.105237 -0.878 156 255 97
0.0484043 -0.105477 -0.88 173 255 80
0.0500266 -0.105717 -0.882 188 255 65
0.0515389 -0.105717 -0.882 188 255 65
0.0530512 -0.105717 -0.882 188 255 65
0.0546494 -0.105883 -0.883 195 255 58
0.0562277 -0.106003 -0.884 202 255 51
0.0576788 -0.105883 -0.883 195 255 58
0.0593946 -0.106243 -0.886 215 255 38
0.0611894 -0.106723 -0.89 249 255 4
0.0627161 -0.106723 -0.89 249 255 4
0.0640984 -0.106483 -0.888 231 255 22
0.0656956 -0.106603 -0.889 240 255 13
0.0671067 -0.106422 -0.887 223 255 30
0.0684743 -0.106182 -0.885 208 255 45
0.0702305 -0.106542 -0.888 231 255 22
0.071997 -0.106902 -0.891 255 251 0
0.0730311 -0.106182 -0.885 208 255 45
0.0743816 -0.105942 -0.883 195 255 58
0.0752955 -0.105103 -0.876 136 255 117
0.0774504 -0.105994 -0.883 195 255 58
0.0795926 -0.106834 -0.89 249 255 4
0.082397 -0.108515 -0.904 255 150 0
0.084135 -0.108755 -0.906 255 136 0
0.0858799 -0.108995 -0.908 255 123 0
0.0893141 -0.111332 -0.927 255 4 0
-0.111994 -0.110414 -0.905 255 143 0
-0.111413 -0.11139 -0.913 255 82 0
-0.109121 -0.110658 -0.907 255 130 0
-0.106551 -0.10962 -0.899 255 191 0
-0.104538 -0.109133 -0.895 255 217 0
-0.101733 -0.107791 -0.884 202 255 51
-0.100212 -0.107791 -0.884 202 255 51
-0.0993186 -0.108475 -0.89 249 255 4
-0.097569 -0.108232 -0.888 231 255 22
-0.0959344 -0.10811 -0.887 223 255 30
-0.0938775 -0.1075 -0.882 188 255 65
-0.0915236 -0.106525 -0.874 117 254 136
-0.089562 -0.105982 -0.87 81 255 172
-0.0882697 -0.106225 -0.872 97 255 156
-0.086075 -0.105373 -0.865 34 255 219
-0.0850779 -0.105982 -0.87 81 255 172
-0.083295 -0.105616 -0.867 56 255 197
-0.0818054 -0.105616 -0.867 56 255 197
-0.0806455 -0.10605 -0.871 89 254 164
-0.0789681 -0.105806 -0.869 73 254 180
-0.0779217 -0.106415 -0.874 117 254 136
-0.0763334 -0.106293 -0.873 107 255 146
-0.0748343 -0.106293 -0.873 107 255 146
-0.0733353 -0.106293 -0.873 107 255 146
-0.0718012 -0.106242 -0.873 107 255 146
-0.0703028 -0.106242 -0.873 107 255 146
-0.0686469 -0.105998 -0.871 89 254 164
-0.0671519 -0.105998 -0.871 89 254 164
-0.0655063 -0.105755 -0.869 73 254 180
-0.0640148 -0.105755 -0.869 73 254 180
-0.0622008 -0.105209 -0.865 34 255 219
-0.0605767 -0.104966 -0.863 15 255 238
-0.0590278 -0.104844 -0.862 6 255 247
-0.0573489 -0.10448 -0.859 0 241 254
-0.055355 -0.103507 -0.851 0 189 255
-0.0540219 -0.10375 -0.853 0 204 255
-0.0526203 -0.103871 -0.854 0 211 255
-0.0506162 -0.102777 -0.845 0 151 255
-0.049574 -0.103628 -0.852 0 197 254
-0.0481478 -0.103704 -0.853 0 204 255
-0.0466852 -0.103704 -0.853 0 204 255
-0.0452756 -0.103826 -0.854 0 211 255
-0.0438114 -0.103826 -0.854 0 211 255
-0.0423471 -0.103826 -0.854 0 211 255
-0.0408828 -0.103826 -0.854 0 211 255
-0.0393724 -0.103704 -0.853 0 204 255
-0.0379542 -0.103826 -0.854 0 211 255
-0.0364899 -0.103826 -0.854 0 211 255
-0.0350667 -0.103947 -0.855 0 217 254
-0.0335418 -0.103765 -0.854 0 211 255
-0.0320784 -0.103765 -0.854 0 211 255
-0.0306508 -0.103887 -0.855 0 217 254
-0.0291515 -0.103765 -0.854 0 211 255
-0.0276557 -0.103644 -0.853 0 204 255
-0.026194 -0.103644 -0.853 0 204 255
-0.0247902 -0.103887 -0.855 0 217 254
-0.0232433 -0.103522 -0.852 0 197 254
-0.0217833 -0.103522 -0.852 0 197 254
-0.0202755 -0.103279 -0.85 0 181 254
-0.0187747 -0.103036 -0.848 0 169 255
-0.0172398 -0.10255 -0.844 0 142 255
-0.0157748 -0.102429 -0.843 0 134 255
-0.0143302 -0.102429 -0.843 0 134 255
-0.0128857 -0.102429 -0.843 0 134 255
-0.0114411 -0.102429 -0.843 0 134 255
-0.0100084 -0.10255 -0.844 0 142 255
-0.00855193 -0.102429 -0.843 0 134 255
-0.00710735 -0.102429 -0.843 0 134 255
-0.00565605 -0.102307 -0.842 0 125 254
-0.00421319 -0.102307 -0.842 0 125 254
-0.00277032 -0.102307 -0.842 0 125 254
-0.00132903 -0.102429 -0.843 0 134 255
0.00011541 -0.102307 -0.842 0 125 254
0.00156568 -0.102793 -0.846 0 158 255
0.00302966 -0.103279 -0.85 0 181 254
0.00454957 -0.104737 -0.862 6 255 247
0.00598476 -0.104008 -0.856 0 224 255
0.00745161 -0.104008 -0.856 0 224 255
0.00890805 -0.103887 -0.855 0 217 254
0.0103853 -0.104008 -0.856 0 224 255
0.0118799 -0.104251 -0.858 0 235 255
0.0133813 -0.104494 -0.86 0 246 255
0.0148895 -0.104737 -0.862 6 255 247
0.0164046 -0.10498 -0.864 23 255 230
0.0179887 -0.105588 -0.869 73 254 180
0.0194554 -0.105466 -0.868 66 255 187
0.0209429 -0.105466 -0.868 66 255 187
0.0225078 -0.105831 -0.871 89 254 164
0.0240555 -0.106074 -0.873 107 255 146
0.0254344 -0.105588 -0.869 73 254 180
0.0270165 -0.105952 -0.872 97 255 156
0.0285434 -0.106074 -0.873 107 255 146
0.0300394 -0.106074 -0.873 107 255 146
0.0314632 -0.105831 -0.871 89 254 164
0.0330692 -0.106195 -0.874 117 254 136
0.0346267 -0.106379 -0.875 127 255 126
0.0360857 -0.106257 -0.874 117 254 136
0.0376703 -0.1065 -0.876 136 255 117
0.0391723 -0.1065 -0.876 136 255 117
0.0407207 -0.106622 -0.877 146 255 107
0.0421763 -0.1065 -0.876 136 255 117
0.0436783 -0.1065 -0.876 136 255 117
0.0452318 -0.106622 -0.877 146 255 107
0.0467889 -0.106743 -0.878 156 255 97
0.0484043 -0.106987 -0.88 173 255 80
0.0499699 -0.107108 -0.881 180 255 73
0.0515616 -0.107277 -0.882 188 255 65
0.0531348 -0.107399 -0.883 195 255 58
0.0545876 -0.107277 -0.882 188 255 65
0.0561005 -0.107277 -0.882 188 255 65
0.0577441 -0.10752 -0.884 202 255 51
0.0593276 -0.107642 -0.885 208 255 45
0.0607082 -0.107399 -0.883 195 255 58
0.0624342 -0.107764 -0.886 215 255 38
0.0642063 -0.108189 -0.889 240 255 13
0.0656582 -0.108067 -0.888 231 255 22
0.0671067 -0.107945 -0.887 223 255 30
0.0684743 -0.107702 -0.885 208 255 45
0.0698351 -0.107458 -0.883 195 255 58
0.0713506 -0.107458 -0.883 195 255 58
0.0731137 -0.107824 -0.886 215 255 38
0.0745864 -0.107754 -0.885 208 255 45
0.0755901 -0.107024 -0.879 165 255 88
0.0778012 -0.107998 -0.887 223 255 30
0.0796821 -0.108485 -0.891 255 251 0
0.0823058 -0.109946 -0.903 255 158 0
0.0839493 -0.110068 -0.904 255 150 0
0.0856396 -0.110245 -0.905 255 143 0
0.0895068 -0.113169 -0.929 251 0 0
-0.119687 -0.114872 -0.928 255 0 0
-0.117071 -0.113881 -0.92 255 34 0
-0.114053 -0.112467 -0.909 255 116 0
-0.112118 -0.112096 -0.906 255 136 0
-0.109705 -0.11123 -0.899 255 191 0
-0.107677 -0.110735 -0.895 255 217 0
-0.106374 -0.110982 -0.897 255 206 0
-0.104187 -0.110301 -0.892 255 241 0
-0.102999 -0.110672 -0.895 255 217 0
-0.100893 -0.110054 -0.89 249 255 4
-0.0992504 -0.10993 -0.889 240 255 13
-0.0972393 -0.109388 -0.885 208 255 45
-0.0955018 -0.109141 -0.883 195 255 58
-0.093771 -0.108893 -0.881 180 255 73
-0.0915236 -0.108028 -0.874 117 254 136
-0.0898153 -0.107781 -0.872 97 255 156
-0.0875611 -0.106859 -0.865 34 255 219
-0.086075 -0.106859 -0.865 34 255 219
-0.0850779 -0.107477 -0.87 81 255 172
-0.083391 -0.10723 -0.868 66 255 187
-0.0825603 -0.108095 -0.875 127 255 126
-0.0805938 -0.107477 -0.87 81 255 172
-0.0791498 -0.107546 -0.871 89 254 164
-0.0777433 -0.107669 -0.872 97 255 156
-0.0763334 -0.107793 -0.873 107 255 146
-0.0748343 -0.107793 -0.873 107 255 146
-0.0733353 -0.107793 -0.873 107 255 146
-0.0718362 -0.107793 -0.873 107 255 146
-0.0703028 -0.10774 -0.873 107 255 146
-0.0688045 -0.10774 -0.873 107 255 146
-0.067229 -0.107617 -0.872 97 255 156
-0.0654309 -0.107123 -0.868 66 255 187
-0.0640884 -0.10737 -0.87 81 255 172
-0.0622355 -0.106753 -0.865 34 255 219
-0.0604699 -0.106259 -0.861 0 253 255
-0.0588909 -0.106077 -0.86 0 246 255
-0.0574156 -0.106077 -0.86 0 246 255
-0.0556152 -0.10546 -0.855 0 217 254
-0.0538319 -0.104843 -0.85 0 181 254
-0.0526819 -0.10546 -0.855 0 217 254
-0.0510355 -0.10509 -0.852 0 197 254
-0.0496322 -0.105214 -0.853 0 204 255
-0.0481125 -0.10509 -0.852 0 197 254
-0.0467058 -0.105214 -0.853 0 204 255
-0.0451696 -0.105044 -0.852 0 197 254
-0.0437601 -0.105167 -0.853 0 204 255
-0.0422975 -0.105167 -0.853 0 204 255
-0.0408349 -0.105167 -0.853 0 204 255
-0.0394185 -0.10529 -0.854 0 211 255
-0.0379987 -0.105414 -0.855 0 217 254
-0.0364899 -0.10529 -0.854 0 211 255
-0.0350257 -0.10529 -0.854 0 211 255
-0.0336007 -0.105414 -0.855 0 217 254
-0.0321347 -0.105414 -0.855 0 217 254
-0.0306687 -0.105414 -0.855 0 217 254
-0.0292027 -0.105414 -0.855 0 217 254
-0.0276881 -0.105229 -0.854 0 211 255
-0.0262247 -0.105229 -0.854 0 211 255
-0.0248192 -0.105475 -0.856 0 224 255
-0.0232433 -0.104983 -0.852 0 197 254
-0.0217577 -0.104859 -0.851 0 189 255
-0.0202755 -0.104736 -0.85 0 181 254
-0.0187525 -0.104366 -0.847 0 164 255
-0.0172398 -0.103997 -0.844 0 142 255
-0.0157748 -0.103874 -0.843 0 134 255
-0.0143302 -0.103874 -0.843 0 134 255
-0.0128857 -0.103874 -0.843 0 134 255
-0.0114547 -0.103997 -0.844 0 142 255
-0.0100084 -0.103997 -0.844 0 142 255
-0.00854179 -0.10375 -0.842 0 125 254
-0.00709892 -0.10375 -0.842 0 125 254
-0.00564934 -0.103627 -0.841 0 117 254
-0.00420818 -0.103627 -0.841 0 117 254
-0.00276703 -0.103627 -0.841 0 117 254
-0.00132746 -0.10375 -0.842 0 125 254
0.000115547 -0.103874 -0.843 0 134 255
0.00157123 -0.104613 -0.849 0 174 255
0.00302966 -0.104736 -0.85 0 181 254
0.00449679 -0.104983 -0.852 0 197 254
0.00597776 -0.105352 -0.855 0 217 254
0.00744291 -0.105352 -0.855 0 217 254
0.00888721 -0.105106 -0.853 0 204 255
0.0103489 -0.105106 -0.853 0 204 255
0.0118522 -0.105475 -0.856 0 224 255
0.0133346 -0.105599 -0.857 0 230 255
0.014855 -0.105968 -0.86 0 246 255
0.0164046 -0.106461 -0.864 23 255 230
0.017968 -0.106954 -0.868 66 255 187
0.0194778 -0.107077 -0.869 73 254 180
0.0209429 -0.106954 -0.868 66 255 187
0.0224303 -0.106954 -0.868 66 255 187
0.0240279 -0.107447 -0.872 97 255 156
0.0255807 -0.107693 -0.874 117 254 136
0.0270474 -0.10757 -0.873 107 255 146
0.0286088 -0.107817 -0.875 127 255 126
0.0300225 -0.10751 -0.872 97 255 156
0.0315177 -0.10751 -0.872 97 255 156
0.0330885 -0.107756 -0.874 117 254 136
0.0345871 -0.107756 -0.874 117 254 136
0.0360857 -0.107756 -0.874 117 254 136
0.0376703 -0.108003 -0.876 136 255 117
0.039217 -0.108126 -0.877 146 255 107
0.0407207 -0.108126 -0.877 146 255 107
0.0421763 -0.108003 -0.876 136 255 117
0.0437281 -0.108126 -0.877 146 255 107
0.0452318 -0.108126 -0.877 146 255 107
0.0467889 -0.108249 -0.878 156 255 97
0.0483156 -0.108297 -0.878 156 255 97
0.0498785 -0.10842 -0.879 165 255 88
0.0515032 -0.108667 -0.881 180 255 73
0.0530746 -0.108791 -0.882 188 255 65
0.0545876 -0.108791 -0.882 188 255 65
0.0561005 -0.108791 -0.882 188 255 65
0.0577441 -0.109037 -0.884 202 255 51
0.0593946 -0.109284 -0.886 215 255 38
0.0606394 -0.108791 -0.882 188 255 65
0.0622575 -0.108975 -0.883 195 255 58
0.0639897 -0.109345 -0.886 215 255 38
0.0656582 -0.109592 -0.888 231 255 22
0.0671067 -0.109468 -0.887 223 255 30
0.0683969 -0.109098 -0.884 202 255 51
0.0700723 -0.109345 -0.886 215 255 38
0.0723202 -0.110455 -0.895 255 217 0
0.0729016 -0.109028 -0.883 195 255 58
0.0740807 -0.108534 -0.879 165 255 88
0.0760201 -0.109151 -0.884 202 255 51
0.0782398 -0.110139 -0.892 255 241 0
0.0802186 -0.110756 -0.897 255 206 0
0.0826704 -0.111991 -0.907 255 130 0
0.0842706 -0.112048 -0.907 255 130 0
0.0852611 -0.111307 -0.901 255 173 0
0.088736 -0.113777 -0.921 255 31 0
-0.120631 -0.115842 -0.923 255 25 0
-0.11685 -0.113709 -0.906 255 136 0
-0.115926 -0.114336 -0.911 255 99 0
-0.113856 -0.113834 -0.907 255 130 0
-0.111499 -0.113028 -0.901 255 173 0
-0.109827 -0.112903 -0.9 255 182 0
-0.107436 -0.112025 -0.893 255 231 0
-0.1059 -0.112025 -0.893 255 231 0
-0.104129 -0.111774 -0.891 255 251 0
-0.102423 -0.111585 -0.89 249 255 4
-0.100553 -0.111209 -0.887 223 255 30
-0.0985806 -0.110707 -0.883 195 255 58
-0.0968422 -0.110457 -0.881 180 255 73
-0.0947862 -0.10983 -0.876 136 255 117
-0.0934517 -0.110032 -0.878 156 255 97
-0.0919425 -0.110032 -0.878 156 255 97
-0.0896093 -0.10903 -0.87 81 255 172
-0.0883164 -0.10928 -0.872 97 255 156
-0.0863196 -0.108654 -0.867 56 255 197
-0.0851757 -0.109097 -0.871 89 254 164
-0.083391 -0.108722 -0.868 66 255 187
-0.0822772 -0.109223 -0.872 97 255 156
-0.0805012 -0.108847 -0.869 73 254 180
-0.0793719 -0.109348 -0.873 107 255 146
-0.0777433 -0.109167 -0.872 97 255 156
-0.076246 -0.109167 -0.872 97 255 156
-0.0748343 -0.109292 -0.873 107 255 146
-0.0733353 -0.109292 -0.873 107 255 146
-0.0718362 -0.109292 -0.873 107 255 146
-0.0703371 -0.109292 -0.873 107 255 146
-0.0687591 -0.109167 -0.872 97 255 156
-0.0671519 -0.108989 -0.871 89 254 164
-0.0654309 -0.108614 -0.868 66 255 187
-0.0640148 -0.108739 -0.869 73 254 180
-0.0621635 -0.108113 -0.864 23 255 230
-0.0603997 -0.107613 -0.86 0 246 255
-0.0589237 -0.107613 -0.86 0 246 255
-0.057314 -0.107362 -0.858 0 235 255
-0.0558103 -0.107303 -0.858 0 235 255
-0.0539585 -0.106552 -0.852 0 197 254
-0.0524354 -0.106427 -0.851 0 189 255
-0.0510355 -0.106552 -0.852 0 197 254
-0.0495159 -0.106427 -0.851 0 189 255
-0.0481125 -0.106552 -0.852 0 197 254
-0.0465963 -0.106427 -0.851 0 189 255
-0.0451895 -0.106552 -0.852 0 197 254
-0.0437794 -0.106677 -0.853 0 204 255
-0.0423967 -0.10688 -0.855 0 217 254
-0.0408828 -0.106755 -0.854 0 211 255
-0.0394185 -0.106755 -0.854 0 211 255
-0.0379987 -0.10688 -0.855 0 217 254
-0.0365327 -0.10688 -0.855 0 217 254
-0.0350667 -0.10688 -0.855 0 217 254
-0.0335614 -0.106755 -0.854 0 211 255
-0.0321723 -0.107005 -0.856 0 224 255
-0.0306687 -0.10688 -0.855 0 217 254
-0.0292368 -0.107005 -0.856 0 224 255
-0.0277043 -0.106755 -0.854 0 211 255
-0.0261785 -0.106505 -0.852 0 197 254
-0.0248337 -0.107005 -0.856 0 224 255
-0.0233114 -0.106755 -0.854 0 211 255
-0.0217321 -0.106193 -0.85 0 181 254
-0.0202517 -0.106068 -0.849 0 174 255
-0.0187083 -0.105569 -0.845 0 151 255
-0.0172194 -0.105319 -0.843 0 134 255
-0.0157748 -0.105319 -0.843 0 134 255
-0.0143302 -0.105319 -0.843 0 134 255
-0.0128857 -0.105319 -0.843 0 134 255
-0.0114275 -0.105194 -0.842 0 125 254
-0.00999651 -0.105319 -0.843 0 134 255
-0.00854179 -0.105194 -0.842 0 125 254
-0.00709049 -0.105069 -0.841 0 117 254
-0.00564934 -0.105069 -0.841 0 117 254
-0.00421319 -0.105194 -0.842 0 125 254
-0.00277032 -0.105194 -0.842 0 125 254
-0.00132746 -0.105194 -0.842 0 125 254
0.000116095 -0.105818 -0.847 0 164 255
0.00157123 -0.106068 -0.849 0 174 255
0.00302966 -0.106193 -0.85 0 181 254
0.00449679 -0.106443 -0.852 0 197 254
0.00596378 -0.106568 -0.853 0 204 255
0.00744291 -0.106818 -0.855 0 217 254
0.00888721 -0.106568 -0.853 0 204 255
0.0103368 -0.106443 -0.852 0 197 254
0.0118106 -0.106568 -0.853 0 204 255
0.013319 -0.106943 -0.856 0 224 255
0.0147859 -0.106943 -0.856 0 224 255
0.0163667 -0.107692 -0.862 6 255 247
0.0179473 -0.108317 -0.867 56 255 197
0.0195003 -0.108692 -0.87 81 255 172
0.0209911 -0.108692 -0.87 81 255 172
0.0225078 -0.108817 -0.871 89 254 164
0.0238214 -0.108005 -0.864 23 255 230
0.0255956 -0.109255 -0.874 117 254 136
0.0271252 -0.10938 -0.875 127 255 126
0.0285274 -0.109005 -0.872 97 255 156
0.0299192 -0.10863 -0.869 73 254 180
0.0315177 -0.109005 -0.872 97 255 156
0.0329749 -0.10888 -0.871 89 254 164
0.0345475 -0.10913 -0.873 107 255 146
0.036127 -0.10938 -0.875 127 255 126
0.0376272 -0.10938 -0.875 127 255 126
0.0391723 -0.109505 -0.876 136 255 117
0.0406743 -0.109505 -0.876 136 255 117
0.0422244 -0.10963 -0.877 146 255 107
0.0437281 -0.10963 -0.877 146 255 107
0.0452518 -0.109679 -0.877 146 255 107
0.0468628 -0.109929 -0.879 165 255 88
0.0484257 -0.110054 -0.88 173 255 80
0.0499919 -0.110179 -0.881 180 255 73
0.0515032 -0.110179 -0.881 180 255 73
0.0530144 -0.110179 -0.881 180 255 73
0.0545876 -0.110304 -0.882 188 255 65
0.0561005 -0.110304 -0.882 188 255 65
0.0577441 -0.110554 -0.884 202 255 51
0.0594277 -0.110866 -0.886 215 255 38
0.0608107 -0.110616 -0.884 202 255 51
0.0622575 -0.110491 -0.883 195 255 58
0.0641341 -0.111116 -0.888 231 255 22
0.0657322 -0.111241 -0.889 240 255 13
0.0671067 -0.110991 -0.887 223 255 30
0.0682422 -0.110365 -0.882 188 255 65
0.0694735 -0.109918 -0.878 156 255 97
0.0713045 -0.110419 -0.882 188 255 65
0.0724888 -0.109918 -0.878 156 255 97
0.0743336 -0.110419 -0.882 188 255 65
0.0762781 -0.111045 -0.887 223 255 30
0.0778889 -0.11117 -0.888 231 255 22
0.0804383 -0.112605 -0.899 255 191 0
0.0827124 -0.113607 -0.907 255 130 0
0.0841777 -0.113481 -0.906 255 136 0
0.0858289 -0.113607 -0.907 255 130 0
-0.119497 -0.114815 -0.902 255 166 0
-0.118859 -0.115706 -0.909 255 116 0
-0.11685 -0.115269 -0.906 255 136 0
-0.114526 -0.114506 -0.9 255 182 0
-0.112852 -0.114378 -0.899 255 191 0
-0.110685 -0.113742 -0.894 255 223 0
-0.108729 -0.113307 -0.891 255 251 0
-0.107075 -0.11318 -0.89 249 255 4
-0.105425 -0.113053 -0.889 240 255 13
-0.103662 -0.112799 -0.887 223 255 30
-0.101905 -0.112544 -0.885 208 255 45
-0.100212 -0.112354 -0.884 202 255 51
-0.0982456 -0.111845 -0.88 173 255 80
-0.0961827 -0.11121 -0.875 127 255 126
-0.0942451 -0.110701 -0.871 89 254 164
-0.0924278 -0.11032 -0.868 66 255 187
-0.0910001 -0.110399 -0.869 73 254 180
-0.0897123 -0.110653 -0.871 89 254 164
-0.0879112 -0.110272 -0.868 66 255 187
-0.086021 -0.109764 -0.864 23 255 230
-0.0856121 -0.111161 -0.875 127 255 126
-0.083295 -0.110087 -0.867 56 255 197
-0.0817111 -0.10996 -0.866 45 255 208
-0.0805938 -0.110467 -0.87 81 255 172
-0.079281 -0.110721 -0.872 97 255 156
-0.0777828 -0.110721 -0.872 97 255 156
-0.0762847 -0.110721 -0.872 97 255 156
-0.0748343 -0.110792 -0.873 107 255 146
-0.0732512 -0.110665 -0.872 97 255 156
-0.0718362 -0.110792 -0.873 107 255 146
-0.0703371 -0.110792 -0.873 107 255 146
-0.0687591 -0.110665 -0.872 97 255 156
-0.0671846 -0.110538 -0.871 89 254 164
-0.0655063 -0.110231 -0.869 73 254 180
-0.0639411 -0.110104 -0.868 66 255 187
-0.0620916 -0.10947 -0.863 15 255 238
-0.0603295 -0.108962 -0.859 0 241 254
-0.0587181 -0.108709 -0.857 0 230 255
-0.0570468 -0.108328 -0.854 0 211 255
-0.0553858 -0.107948 -0.851 0 189 255
-0.0541787 -0.108455 -0.855 0 217 254
-0.0525587 -0.108141 -0.853 0 204 255
-0.0510355 -0.108014 -0.852 0 197 254
-0.0496904 -0.108268 -0.854 0 211 255
-0.048169 -0.108141 -0.853 0 204 255
-0.046651 -0.108014 -0.852 0 197 254
-0.0452426 -0.108141 -0.853 0 204 255
-0.043882 -0.108395 -0.855 0 217 254
-0.042465 -0.108521 -0.856 0 224 255
-0.0409966 -0.108521 -0.856 0 224 255
-0.0394821 -0.108395 -0.855 0 217 254
-0.0379987 -0.108347 -0.855 0 217 254
-0.0366181 -0.1086 -0.857 0 230 255
-0.0351487 -0.1086 -0.857 0 230 255
-0.0337186 -0.108727 -0.858 0 235 255
-0.0322474 -0.108727 -0.858 0 235 255
-0.0307763 -0.108727 -0.858 0 235 255
-0.0293393 -0.108854 -0.859 0 241 254
-0.0277691 -0.108473 -0.856 0 224 255
-0.02624 -0.10822 -0.854 0 211 255
-0.0247467 -0.108093 -0.853 0 204 255
-0.0233114 -0.10822 -0.854 0 211 255
-0.0217192 -0.107586 -0.849 0 174 255
-0.0202158 -0.107333 -0.847 0 164 255
-0.0186749 -0.106826 -0.843 0 134 255
-0.0172295 -0.106826 -0.843 0 134 255
-0.015784 -0.106826 -0.843 0 134 255
-0.0143386 -0.106826 -0.843 0 134 255
-0.0128704 -0.106637 -0.842 0 125 254
-0.0114275 -0.106637 -0.842 0 125 254
-0.00997279 -0.106511 -0.841 0 117 254
-0.00853164 -0.106511 -0.841 0 117 254
-0.00708206 -0.106384 -0.84 0 110 254
-0.00564262 -0.106384 -0.84 0 110 254
-0.00420818 -0.106511 -0.841 0 117 254
-0.00276703 -0.106511 -0.841 0 117 254
-0.00133376 -0.107144 -0.846 0 158 255
0.000116369 -0.107524 -0.849 0 174 255
0.00157308 -0.10765 -0.85 0 181 254
0.00304035 -0.10803 -0.853 0 204 255
0.00450206 -0.10803 -0.853 0 204 255
0.00596378 -0.10803 -0.853 0 204 255
0.0074342 -0.108157 -0.854 0 211 255
0.00889763 -0.108157 -0.854 0 211 255
0.0103489 -0.10803 -0.853 0 204 255
0.0118245 -0.108157 -0.854 0 211 255
0.0133035 -0.108284 -0.855 0 217 254
0.0147945 -0.108473 -0.856 0 224 255
0.0163192 -0.108854 -0.859 0 241 254
0.0178542 -0.109234 -0.862 6 255 247
0.0194892 -0.110121 -0.869 73 254 180
0.0210034 -0.110248 -0.87 81 255 172
0.0224951 -0.110248 -0.87 81 255 172
0.0239868 -0.110248 -0.87 81 255 172
0.0254199 -0.109994 -0.868 66 255 187
0.0270012 -0.110374 -0.871 89 254 164
0.0285274 -0.110501 -0.872 97 255 156
0.0299537 -0.110248 -0.87 81 255 172
0.0315177 -0.110501 -0.872 97 255 156
0.0330885 -0.110754 -0.874 117 254 136
0.0345475 -0.110628 -0.873 107 255 146
0.0360857 -0.110754 -0.874 117 254 136
0.0375842 -0.110754 -0.874 117 254 136
0.0390828 -0.110754 -0.874 117 254 136
0.0406922 -0.111057 -0.876 136 255 117
0.0421949 -0.111057 -0.876 136 255 117
0.0436477 -0.11093 -0.875 127 255 126
0.0452002 -0.111057 -0.876 136 255 117
0.0467562 -0.111184 -0.877 146 255 107
0.0484257 -0.111564 -0.88 173 255 80
0.0499919 -0.111691 -0.881 180 255 73
0.0515032 -0.111691 -0.881 180 255 73
0.0530746 -0.111818 -0.882 188 255 65
0.0546494 -0.111944 -0.883 195 255 58
0.0560681 -0.111753 -0.881 180 255 73
0.0575802 -0.111753 -0.881 180 255 73
0.0592935 -0.112134 -0.884 202 255 51
0.0608795 -0.11226 -0.885 208 255 45
0.062328 -0.112134 -0.884 202 255 51
0.0640619 -0.112514 -0.887 223 255 30
0.0657322 -0.112768 -0.889 240 255 13
0.0671067 -0.112514 -0.887 223 255 30
0.0683528 -0.112061 -0.883 195 255 58
0.0706604 -0.11333 -0.893 255 231 0
0.0706577 -0.110919 -0.874 117 254 136
0.0719109 -0.110538 -0.871 89 254 164
0.0740807 -0.111554 -0.879 165 255 88
0.0761061 -0.112315 -0.885 208 255 45
0.0779285 -0.112753 -0.888 231 255 22
0.0808857 -0.114785 -0.904 255 150 0
0.08253 -0.114912 -0.905 255 143 0
0.0841777 -0.115039 -0.906 255 136 0
0.0867752 -0.116435 -0.917 255 53 0
0.0897958 -0.11834 -0.932 239 0 0
-0.127741 -0.118249 -0.916 255 59 0
-0.12451 -0.1167 -0.904 255 150 0
-0.118872 -0.112827 -0.874 117 254 136
-0.118635 -0.114047 -0.884 202 255 51
-0.119497 -0.116369 -0.902 255 166 0
-0.117682 -0.116111 -0.9 255 182 0
-0.115745 -0.115724 -0.897 255 206 0
-0.114017 -0.11554 -0.896 255 212 0
-0.112224 -0.115282 -0.894 255 223 0
-0.110437 -0.115024 -0.892 255 241 0
-0.108536 -0.114637 -0.889 240 255 13
-0.107005 -0.114637 -0.889 240 255 13
-0.10507 -0.114197 -0.886 215 255 38
-0.103545 -0.114197 -0.886 215 255 38
-0.101905 -0.114068 -0.885 208 255 45
-0.100156 -0.11381 -0.883 195 255 58
-0.0980223 -0.113101 -0.878 156 255 97
-0.0954132 -0.111813 -0.868 66 255 187
-0.0934877 -0.111298 -0.864 23 255 230
-0.0923213 -0.111684 -0.867 56 255 197
-0.0898875 -0.110525 -0.858 0 235 255
-0.0894033 -0.111764 -0.868 66 255 187
-0.0868984 -0.110477 -0.858 0 235 255
-0.0864192 -0.111764 -0.868 66 255 187
-0.0856121 -0.112666 -0.875 127 255 126
-0.0836274 -0.112022 -0.87 81 255 172
-0.0819941 -0.111834 -0.869 73 254 180
-0.0807791 -0.11222 -0.872 97 255 156
-0.079281 -0.11222 -0.872 97 255 156
-0.0777828 -0.11222 -0.872 97 255 156
-0.0763722 -0.112349 -0.873 107 255 146
-0.0747866 -0.11222 -0.872 97 255 156
-0.0733353 -0.112292 -0.873 107 255 146
-0.0718362 -0.112292 -0.873 107 255 146
-0.0702565 -0.112163 -0.872 97 255 156
-0.0687591 -0.112163 -0.872 97 255 156
-0.0671075 -0.111906 -0.87 81 255 172
-0.0655382 -0.111777 -0.869 73 254 180
-0.0637511 -0.111263 -0.865 34 255 219
-0.0620196 -0.110823 -0.862 6 255 247
-0.0602592 -0.110309 -0.858 0 235 255
-0.0585811 -0.109923 -0.855 0 217 254
-0.05698 -0.109666 -0.853 0 204 255
-0.0553858 -0.109409 -0.851 0 189 255
-0.0538619 -0.10928 -0.85 0 181 254
-0.0524646 -0.109409 -0.851 0 189 255
-0.0511838 -0.109794 -0.854 0 211 255
-0.0496904 -0.109733 -0.854 0 211 255
-0.0482255 -0.109733 -0.854 0 211 255
-0.0467606 -0.109733 -0.854 0 211 255
-0.0453487 -0.109862 -0.855 0 217 254
-0.0438307 -0.109733 -0.854 0 211 255
-0.0423658 -0.109733 -0.854 0 211 255
-0.0409487 -0.109862 -0.855 0 217 254
-0.0394821 -0.109862 -0.855 0 217 254
-0.0381488 -0.110247 -0.858 0 235 255
-0.0366343 -0.110119 -0.857 0 230 255
-0.0351642 -0.110119 -0.857 0 230 255
-0.0336793 -0.11007 -0.857 0 230 255
-0.0322099 -0.11007 -0.857 0 230 255
-0.0307404 -0.11007 -0.857 0 230 255
-0.0293052 -0.110199 -0.858 0 235 255
-0.0277691 -0.109942 -0.856 0 224 255
-0.02624 -0.109685 -0.854 0 211 255
-0.0247757 -0.109685 -0.854 0 211 255
-0.0232841 -0.109556 -0.853 0 204 255
-0.0217704 -0.1093 -0.851 0 189 255
-0.0201442 -0.1084 -0.844 0 142 255
-0.0186527 -0.108144 -0.842 0 125 254
-0.017209 -0.108144 -0.842 0 125 254
-0.0157653 -0.108144 -0.842 0 125 254
-0.0143216 -0.108144 -0.842 0 125 254
-0.0128626 -0.108015 -0.841 0 117 254
-0.011407 -0.107887 -0.84 0 110 254
-0.00996674 -0.107887 -0.84 0 110 254
-0.00853662 -0.108015 -0.841 0 117 254
-0.00709462 -0.108015 -0.841 0 117 254
-0.00564591 -0.107887 -0.84 0 110 254
-0.00420563 -0.107887 -0.84 0 110 254
-0.00276535 -0.107887 -0.84 0 110 254
-0.00133927 -0.109043 -0.849 0 174 255
0.000116712 -0.1093 -0.851 0 189 255
0.00157955 -0.109556 -0.853 0 204 255
0.00304212 -0.109556 -0.853 0 204 255
0.00450469 -0.109556 -0.853 0 204 255
0.00598125 -0.109813 -0.855 0 217 254
0.00743854 -0.109685 -0.854 0 211 255
0.00890282 -0.109685 -0.854 0 211 255
0.010355 -0.109556 -0.853 0 204 255
0.0118037 -0.109428 -0.852 0 197 254
0.0132801 -0.109556 -0.853 0 204 255
0.0147945 -0.109942 -0.856 0 224 255
0.0162432 -0.109813 -0.855 0 217 254
0.0178128 -0.110455 -0.86 0 246 255
0.0193322 -0.110712 -0.862 6 255 247
0.0209792 -0.111611 -0.869 73 254 180
0.0224175 -0.111354 -0.867 56 255 197
0.0239041 -0.111354 -0.867 56 255 197
0.0253906 -0.111354 -0.867 56 255 197
0.0270942 -0.112254 -0.874 117 254 136
0.0285274 -0.111997 -0.872 97 255 156
0.0300569 -0.112125 -0.873 107 255 146
0.0314454 -0.11174 -0.87 81 255 172
0.0330128 -0.111997 -0.872 97 255 156
0.0345871 -0.112254 -0.874 117 254 136
0.0360603 -0.112175 -0.873 107 255 146
0.0376008 -0.112303 -0.874 117 254 136
0.0391001 -0.112303 -0.874 117 254 136
0.0406458 -0.112432 -0.875 127 255 126
0.0421467 -0.112432 -0.875 127 255 126
0.0436975 -0.11256 -0.876 136 255 117
0.0452518 -0.112689 -0.877 146 255 107
0.0467029 -0.11256 -0.876 136 255 117
0.0481505 -0.112432 -0.875 127 255 126
0.0497082 -0.11256 -0.876 136 255 117
0.0513278 -0.112817 -0.878 156 255 97
0.0530439 -0.113266 -0.881 180 255 73
0.054556 -0.113266 -0.881 180 255 73
0.0560045 -0.113137 -0.88 173 255 80
0.0574495 -0.113008 -0.879 165 255 88
0.0592935 -0.113651 -0.884 202 255 51
0.0608795 -0.11378 -0.885 208 255 45
0.062469 -0.113908 -0.886 215 255 38
0.0639174 -0.11378 -0.885 208 255 45
0.0656902 -0.114221 -0.888 231 255 22
0.067215 -0.114221 -0.888 231 255 22
0.0684302 -0.113707 -0.884 202 255 51
0.06979 -0.113449 -0.882 188 255 65
0.0709811 -0.112935 -0.878 156 255 97
0.0722411 -0.112549 -0.875 127 255 126
0.0742493 -0.113321 -0.881 180 255 73
0.0762308 -0.114022 -0.886 215 255 38
0.0783673 -0.114923 -0.893 255 231 0
0.0808857 -0.116338 -0.904 255 150 0
0.0827124 -0.116724 -0.907 255 130 0
0.0842706 -0.116724 -0.907 255 130 0
0.0872944 -0.118717 -0.922 255 28 0
-0.129245 -0.119759 -0.915 255 67 0
-0.126765 -0.118912 -0.909 255 116 0
-0.124648 -0.118389 -0.905 255 143 0
-0.122 -0.117343 -0.897 255 206 0
-0.120723 -0.117604 -0.899 255 191 0
-0.118967 -0.1174 -0.898 255 199 0
-0.117159 -0.117139 -0.896 255 212 0
-0.115487 -0.117008 -0.895 255 217 0
-0.113945 -0.117008 -0.895 255 217 0
-0.112098 -0.116691 -0.893 255 231 0
-0.11019 -0.116299 -0.89 249 255 4
-0.108413 -0.116037 -0.888 231 255 22
-0.106644 -0.115776 -0.886 215 255 38
-0.105 -0.115645 -0.885 208 255 45
-0.103428 -0.115591 -0.885 208 255 45
-0.10133 -0.114938 -0.88 173 255 80
-0.099702 -0.114807 -0.879 165 255 88
-0.0975193 -0.114024 -0.873 107 255 146
-0.0954132 -0.113306 -0.868 66 255 187
-0.0938123 -0.113176 -0.867 56 255 197
-0.0926408 -0.113568 -0.87 81 255 172
-0.0910399 -0.113437 -0.869 73 254 180
-0.0882059 -0.11174 -0.856 0 224 255
-0.0881138 -0.113518 -0.87 81 255 172
-0.0865188 -0.113387 -0.869 73 254 180
-0.0855142 -0.11404 -0.874 117 254 136
-0.0835312 -0.113387 -0.869 73 254 180
-0.0824151 -0.113909 -0.873 107 255 146
-0.0807291 -0.113648 -0.871 89 254 164
-0.079281 -0.113719 -0.872 97 255 156
-0.077872 -0.113849 -0.873 107 255 146
-0.0765471 -0.11411 -0.875 127 255 126
-0.0749581 -0.11398 -0.874 117 254 136
-0.0733725 -0.113849 -0.873 107 255 146
-0.071955 -0.11398 -0.874 117 254 136
-0.0703371 -0.113791 -0.873 107 255 146
-0.068838 -0.113791 -0.873 107 255 146
-0.0670304 -0.11327 -0.869 73 254 180
-0.065689 -0.113531 -0.871 89 254 164
-0.0639722 -0.11314 -0.868 66 255 187
-0.0620498 -0.112358 -0.862 6 255 247
-0.060148 -0.111575 -0.856 0 224 255
-0.0585126 -0.111261 -0.854 0 211 255
-0.05698 -0.11113 -0.853 0 204 255
-0.0553858 -0.11087 -0.851 0 189 255
-0.0539252 -0.11087 -0.851 0 189 255
-0.0523413 -0.110609 -0.849 0 174 255
-0.051064 -0.111 -0.852 0 197 254
-0.0496017 -0.111 -0.852 0 197 254
-0.0481958 -0.11113 -0.853 0 204 255
-0.0467606 -0.111199 -0.854 0 211 255
-0.0453487 -0.111329 -0.855 0 217 254
-0.0438307 -0.111199 -0.854 0 211 255
-0.0423658 -0.111199 -0.854 0 211 255
-0.0409487 -0.111329 -0.855 0 217 254
-0.0395283 -0.111459 -0.856 0 224 255
-0.0380599 -0.111459 -0.856 0 224 255
-0.0366343 -0.111589 -0.857 0 230 255
-0.0351642 -0.111589 -0.857 0 230 255
-0.0336941 -0.111589 -0.857 0 230 255
-0.0322241 -0.111589 -0.857 0 230 255
-0.030754 -0.111589 -0.857 0 230 255
-0.029271 -0.11154 -0.857 0 230 255
-0.0277691 -0.11141 -0.856 0 224 255
-0.0262707 -0.11128 -0.855 0 217 254
-0.0248047 -0.11128 -0.855 0 217 254
-0.0233114 -0.11115 -0.854 0 211 255
-0.0216936 -0.110369 -0.848 0 169 255
-0.0201442 -0.109848 -0.844 0 142 255
-0.0186527 -0.109588 -0.842 0 125 254
-0.017209 -0.109588 -0.842 0 125 254
-0.0157653 -0.109588 -0.842 0 125 254
-0.0142876 -0.109328 -0.84 0 110 254
-0.0128473 -0.109328 -0.84 0 110 254
-0.0113934 -0.109197 -0.839 0 102 255
-0.00995488 -0.109197 -0.839 0 102 255
-0.00853662 -0.109458 -0.841 0 117 254
-0.00708619 -0.109328 -0.84 0 110 254
-0.00563919 -0.109197 -0.839 0 102 255
-0.00420563 -0.109328 -0.84 0 110 254
-0.00276865 -0.109458 -0.841 0 117 254
-0.0013377 -0.110369 -0.848 0 169 255
0.000116849 -0.110889 -0.852 0 197 254
0.0015777 -0.110889 -0.852 0 197 254
0.00303856 -0.110889 -0.852 0 197 254
0.00450997 -0.11115 -0.854 0 211 255
0.00596026 -0.110889 -0.852 0 197 254
0.00742983 -0.111019 -0.853 0 204 255
0.00888197 -0.110889 -0.852 0 197 254
0.0103307 -0.110759 -0.851 0 189 255
0.0117898 -0.110759 -0.851 0 189 255
0.0132645 -0.110889 -0.852 0 197 254
0.0147427 -0.111019 -0.853 0 204 255
0.0162622 -0.11141 -0.856 0 224 255
0.0177507 -0.11154 -0.857 0 230 255
0.0192874 -0.111931 -0.86 0 246 255
0.0209068 -0.112711 -0.866 45 255 208
0.0223658 -0.112581 -0.865 34 255 219
0.0238489 -0.112581 -0.865 34 255 219
0.0253321 -0.112581 -0.865 34 255 219
0.0268772 -0.112842 -0.867 56 255 197
0.0285928 -0.113753 -0.874 117 254 136
0.0300225 -0.113492 -0.872 97 255 156
0.0315677 -0.113673 -0.873 107 255 146
0.0329516 -0.113282 -0.87 81 255 172
0.0345232 -0.113542 -0.872 97 255 156
0.0361016 -0.113803 -0.874 117 254 136
0.0375578 -0.113673 -0.873 107 255 146
0.0390553 -0.113673 -0.873 107 255 146
0.0405529 -0.113673 -0.873 107 255 146
0.0421467 -0.113933 -0.875 127 255 126
0.0437973 -0.114324 -0.878 156 255 97
0.045355 -0.114454 -0.879 165 255 88
0.0467562 -0.114193 -0.877 146 255 107
0.0481223 -0.113866 -0.874 117 254 136
0.0496223 -0.113866 -0.874 117 254 136
0.0513564 -0.114387 -0.878 156 255 97
0.0529837 -0.114648 -0.88 173 255 80
0.0544322 -0.114518 -0.879 165 255 88
0.0560681 -0.114778 -0.881 180 255 73
0.0575802 -0.114778 -0.881 180 255 73
0.0592935 -0.115169 -0.884 202 255 51
0.0608795 -0.115299 -0.885 208 255 45
0.0623583 -0.115225 -0.884 202 255 51
0.0640208 -0.115486 -0.886 215 255 38
0.0657642 -0.115877 -0.889 240 255 13
0.0671393 -0.115616 -0.887 223 255 30
0.0689721 -0.116138 -0.891 255 251 0
0.0693152 -0.114182 -0.876 136 255 117
0.0709811 -0.114443 -0.878 156 255 97
0.0723604 -0.11424 -0.876 136 255 117
0.074287 -0.114892 -0.881 180 255 73
0.0759727 -0.115153 -0.883 195 255 58
0.0775774 -0.115284 -0.884 202 255 51
0.0803488 -0.117109 -0.898 255 199 0
0.0823476 -0.117761 -0.903 255 158 0
0.0843152 -0.118346 -0.907 255 130 0
0.0871051 -0.120042 -0.92 255 34 0
-0.130823 -0.121337 -0.915 255 67 0
-0.128397 -0.120541 -0.909 255 116 0
-0.127109 -0.120806 -0.911 255 99 0
-0.123959 -0.119287 -0.9 255 182 0
-0.122136 -0.119022 -0.898 255 199 0
-0.120454 -0.118889 -0.897 255 206 0
-0.118643 -0.118624 -0.895 255 217 0
-0.117028 -0.11855 -0.895 255 217 0
-0.115616 -0.118683 -0.896 255 212 0
-0.11369 -0.118285 -0.893 255 231 0
-0.112152 -0.118285 -0.893 255 231 0
-0.110437 -0.118096 -0.892 255 241 0
-0.108536 -0.117699 -0.889 240 255 13
-0.106644 -0.117302 -0.886 215 255 38
-0.105 -0.117169 -0.885 208 255 45
-0.103009 -0.11664 -0.881 180 255 73
-0.100984 -0.116056 -0.877 146 255 107
-0.0990215 -0.115526 -0.873 107 255 146
-0.0967374 -0.1146 -0.866 45 255 208
-0.0954673 -0.114865 -0.868 66 255 187
-0.0940287 -0.114932 -0.869 73 254 180
-0.0926408 -0.115064 -0.87 81 255 172
-0.0908304 -0.114667 -0.867 56 255 197
-0.0890303 -0.114271 -0.864 23 255 230
-0.0885577 -0.115593 -0.874 117 254 136
-0.0863574 -0.114667 -0.867 56 255 197
-0.0848293 -0.114617 -0.867 56 255 197
-0.0839157 -0.11541 -0.873 107 255 146
-0.0823207 -0.115278 -0.872 97 255 156
-0.0809145 -0.11541 -0.873 107 255 146
-0.0794138 -0.11541 -0.873 107 255 146
-0.0779612 -0.115482 -0.874 117 254 136
-0.0764597 -0.115482 -0.874 117 254 136
-0.0749581 -0.115482 -0.874 117 254 136
-0.0734565 -0.115482 -0.874 117 254 136
-0.071955 -0.115482 -0.874 117 254 136
-0.0702922 -0.115217 -0.872 97 255 156
-0.0686803 -0.115027 -0.871 89 254 164
-0.0671846 -0.115027 -0.871 89 254 164
-0.065689 -0.115027 -0.871 89 254 164
-0.0638985 -0.114499 -0.867 56 255 197
-0.0620498 -0.113838 -0.862 6 255 247
-0.060148 -0.113046 -0.856 0 224 255
-0.0584725 -0.11265 -0.853 0 204 255
-0.0568741 -0.112386 -0.851 0 189 255
-0.0553207 -0.112199 -0.85 0 181 254
-0.054052 -0.112595 -0.853 0 204 255
-0.052403 -0.112199 -0.85 0 181 254
-0.0511239 -0.112595 -0.853 0 204 255
-0.0496599 -0.112595 -0.853 0 204 255
-0.0481393 -0.112463 -0.852 0 197 254
-0.0467318 -0.112595 -0.853 0 204 255
-0.0453739 -0.112859 -0.855 0 217 254
-0.0438551 -0.112727 -0.854 0 211 255
-0.0423658 -0.112664 -0.854 0 211 255
-0.0409966 -0.112928 -0.856 0 224 255
-0.0395283 -0.112928 -0.856 0 224 255
-0.0381044 -0.11306 -0.857 0 230 255
-0.036677 -0.113192 -0.858 0 235 255
-0.0351232 -0.112928 -0.856 0 224 255
-0.0336941 -0.11306 -0.857 0 230 255
-0.0322617 -0.113192 -0.858 0 235 255
-0.030754 -0.11306 -0.857 0 230 255
-0.0293181 -0.113192 -0.858 0 235 255
-0.0277489 -0.112796 -0.855 0 217 254
-0.0262208 -0.112532 -0.853 0 204 255
-0.0248447 -0.112928 -0.856 0 224 255
-0.0233114 -0.112614 -0.854 0 211 255
-0.0216425 -0.11156 -0.846 0 158 255
-0.0201442 -0.111296 -0.844 0 142 255
-0.0186306 -0.1109 -0.841 0 117 254
-0.0171681 -0.110768 -0.84 0 110 254
-0.0157279 -0.110768 -0.84 0 110 254
-0.0142706 -0.110636 -0.839 0 102 255
-0.012832 -0.110636 -0.839 0 102 255
-0.0113799 -0.110505 -0.838 0 95 255
-0.00995488 -0.110636 -0.839 0 102 255
-0.00851632 -0.110636 -0.839 0 102 255
-0.00707775 -0.110636 -0.839 0 102 255
-0.00563919 -0.110636 -0.839 0 102 255
-0.00420563 -0.110768 -0.84 0 110 254
-0.00278181 -0.111428 -0.845 0 151 255
-0.00134085 -0.112087 -0.85 0 181 254
0.000116849 -0.112351 -0.852 0 197 254
0.00157955 -0.112483 -0.853 0 204 255
0.00303142 -0.112087 -0.85 0 181 254
0.00449941 -0.112351 -0.852 0 197 254
0.00595327 -0.112219 -0.851 0 189 255
0.00742112 -0.112351 -0.852 0 197 254
0.00886112 -0.112087 -0.85 0 181 254
0.0103307 -0.112219 -0.851 0 189 255
0.011776 -0.112087 -0.85 0 181 254
0.0132334 -0.112087 -0.85 0 181 254
0.0147254 -0.112351 -0.852 0 197 254
0.0162432 -0.112746 -0.855 0 217 254
0.0176264 -0.112219 -0.851 0 189 255
0.0191977 -0.112878 -0.856 0 224 255
0.0205688 -0.112351 -0.852 0 197 254
0.0223399 -0.113933 -0.864 23 255 230
0.0238214 -0.113933 -0.864 23 255 230
0.025314 -0.113983 -0.864 23 255 230
0.0268271 -0.114115 -0.865 34 255 219
0.0284745 -0.114775 -0.87 81 255 172
0.0301047 -0.115303 -0.874 117 254 136
0.0315677 -0.115171 -0.873 107 255 146
0.0329516 -0.114775 -0.87 81 255 172
0.034444 -0.114775 -0.87 81 255 172
0.0361016 -0.115303 -0.874 117 254 136
0.0376008 -0.115303 -0.874 117 254 136
0.0390553 -0.115171 -0.873 107 255 146
0.0405529 -0.115171 -0.873 107 255 146
0.0420985 -0.115303 -0.874 117 254 136
0.0437973 -0.11583 -0.878 156 255 97
0.045277 -0.115763 -0.877 146 255 107
0.0467289 -0.115631 -0.876 136 255 117
0.0481773 -0.115499 -0.875 127 255 126
0.0496791 -0.115499 -0.875 127 255 126
0.0513564 -0.115895 -0.878 156 255 97
0.0529235 -0.116027 -0.879 165 255 88
0.054556 -0.116291 -0.881 180 255 73
0.056259 -0.116687 -0.884 202 255 51
0.057907 -0.116951 -0.886 215 255 38
0.0593224 -0.116744 -0.884 202 255 51
0.0609092 -0.116876 -0.885 208 255 45
0.0623583 -0.116744 -0.884 202 255 51
0.0641653 -0.117272 -0.888 231 255 22
0.0655422 -0.117008 -0.886 215 255 38
0.0664581 -0.115951 -0.878 156 255 97
0.068198 -0.116347 -0.881 180 255 73
0.0694296 -0.115878 -0.877 146 255 107
0.0710172 -0.11601 -0.878 156 255 97
0.0721952 -0.115482 -0.874 117 254 136
0.074287 -0.116407 -0.881 180 255 73
0.0759727 -0.116671 -0.883 195 255 58
0.0775774 -0.116803 -0.884 202 255 51
0.0801699 -0.118389 -0.896 255 212 0
0.0823911 -0.119376 -0.903 255 158 0
0.0849659 -0.120831 -0.914 255 75 0
0.0866317 -0.120963 -0.915 255 67 0
-0.133466 -0.123904 -0.922 255 28 0
-0.129679 -0.12184 -0.907 255 130 0
-0.128539 -0.122243 -0.91 255 107 0
-0.126411 -0.121706 -0.906 255 136 0
-0.124298 -0.121169 -0.902 255 166 0
-0.121592 -0.120033 -0.894 255 223 0
-0.120454 -0.120435 -0.897 255 206 0
-0.118643 -0.120167 -0.895 255 217 0
-0.116839 -0.119898 -0.893 255 231 0
-0.115357 -0.119958 -0.894 255 223 0
-0.113818 -0.119958 -0.894 255 223 0
-0.111776 -0.119421 -0.89 249 255 4
-0.110491 -0.11969 -0.892 255 241 0
-0.108291 -0.118962 -0.887 223 255 30
-0.106042 -0.118157 -0.881 180 255 73
-0.10417 -0.117754 -0.878 156 255 97
-0.102307 -0.117352 -0.875 127 255 126
-0.100571 -0.117084 -0.873 107 255 146
-0.0989081 -0.116895 -0.872 97 255 156
-0.0971842 -0.116627 -0.87 81 255 172
-0.0953573 -0.116225 -0.867 56 255 197
-0.0937572 -0.116091 -0.866 45 255 208
-0.0923736 -0.116225 -0.867 56 255 197
-0.0902018 -0.115355 -0.861 0 253 255
-0.0896485 -0.116561 -0.87 81 255 172
-0.0885577 -0.117097 -0.874 117 254 136
-0.0866563 -0.116561 -0.87 81 255 172
-0.0854538 -0.116963 -0.873 107 255 146
-0.0839157 -0.116912 -0.873 107 255 146
-0.0824151 -0.116912 -0.873 107 255 146
-0.0810071 -0.117046 -0.874 117 254 136
-0.0795958 -0.117179 -0.875 127 255 126
-0.0780917 -0.117179 -0.875 127 255 126
-0.0764125 -0.116912 -0.873 107 255 146
-0.0748723 -0.11685 -0.873 107 255 146
-0.0734565 -0.116984 -0.874 117 254 136
-0.071955 -0.116984 -0.874 117 254 136
-0.0703728 -0.11685 -0.873 107 255 146
-0.0685574 -0.116315 -0.869 73 254 180
-0.0671416 -0.116448 -0.87 81 255 172
-0.0652365 -0.11572 -0.865 34 255 219
-0.0637511 -0.11572 -0.865 34 255 219
-0.0620498 -0.115319 -0.862 6 255 247
-0.060148 -0.114516 -0.856 0 224 255
-0.058404 -0.113981 -0.852 0 197 254
-0.0567404 -0.11358 -0.849 0 174 255
-0.0550221 -0.113045 -0.845 0 151 255
-0.0541417 -0.114249 -0.854 0 211 255
-0.0522797 -0.113391 -0.848 0 169 255
-0.0508242 -0.113391 -0.848 0 169 255
-0.0495434 -0.113792 -0.851 0 189 255
-0.0481958 -0.114059 -0.853 0 204 255
-0.0467318 -0.114059 -0.853 0 204 255
-0.0453208 -0.114193 -0.854 0 211 255
-0.0439065 -0.114327 -0.855 0 217 254
-0.042439 -0.114327 -0.855 0 217 254
-0.0410195 -0.114461 -0.856 0 224 255
-0.0395503 -0.114461 -0.856 0 224 255
-0.0381044 -0.114531 -0.857 0 230 255
-0.036677 -0.114664 -0.858 0 235 255
-0.0351642 -0.114531 -0.857 0 230 255
-0.0336941 -0.114531 -0.857 0 230 255
-0.0321865 -0.114397 -0.856 0 224 255
-0.0307181 -0.114397 -0.856 0 224 255
-0.0292156 -0.114263 -0.855 0 217 254
-0.0277489 -0.114263 -0.855 0 217 254
-0.0262515 -0.11413 -0.854 0 211 255
-0.0248156 -0.114263 -0.855 0 217 254
-0.0232398 -0.113729 -0.851 0 189 255
-0.0216008 -0.112793 -0.844 0 142 255
-0.0201053 -0.112526 -0.842 0 125 254
-0.0186166 -0.112259 -0.84 0 110 254
-0.0171757 -0.112259 -0.84 0 110 254
-0.0157348 -0.112259 -0.84 0 110 254
-0.0142706 -0.112076 -0.839 0 102 255
-0.012832 -0.112076 -0.839 0 102 255
-0.0113663 -0.111808 -0.837 0 89 254
-0.00995488 -0.112076 -0.839 0 102 255
-0.00851632 -0.112076 -0.839 0 102 255
-0.00707775 -0.112076 -0.839 0 102 255
-0.00563919 -0.112076 -0.839 0 102 255
-0.00421064 -0.112343 -0.841 0 117 254
-0.0027884 -0.113144 -0.847 0 164 255
-0.00134085 -0.113545 -0.85 0 181 254
0.000117123 -0.114079 -0.854 0 211 255
0.001574 -0.113545 -0.85 0 181 254
0.00303142 -0.113545 -0.85 0 181 254
0.00449413 -0.113679 -0.851 0 189 255
0.00595327 -0.113679 -0.851 0 189 255
0.0074037 -0.113545 -0.85 0 181 254
0.00886112 -0.113545 -0.85 0 181 254
0.0103307 -0.113679 -0.851 0 189 255
0.0118037 -0.113812 -0.852 0 197 254
0.0132178 -0.113411 -0.849 0 174 255
0.0146908 -0.113545 -0.85 0 181 254
0.0161934 -0.113862 -0.852 0 197 254
0.0176549 -0.113862 -0.852 0 197 254
0.0191837 -0.114263 -0.855 0 217 254
0.0206503 -0.114263 -0.855 0 217 254
0.0220652 -0.113996 -0.853 0 204 255
0.0238319 -0.115466 -0.864 23 255 230
0.0253433 -0.1156 -0.865 34 255 219
0.0268271 -0.1156 -0.865 34 255 219
0.0283108 -0.1156 -0.865 34 255 219
0.0299669 -0.116268 -0.87 81 255 172
0.0316039 -0.116802 -0.874 117 254 136
0.033141 -0.116936 -0.875 127 255 126
0.034642 -0.116936 -0.875 127 255 126
0.0359777 -0.116401 -0.871 89 254 164
0.0375578 -0.116669 -0.873 107 255 146
0.0391001 -0.116802 -0.874 117 254 136
0.0405754 -0.116734 -0.873 107 255 146
0.0421702 -0.117001 -0.875 127 255 126
0.043672 -0.117001 -0.875 127 255 126
0.045277 -0.117269 -0.877 146 255 107
0.0468356 -0.117402 -0.878 156 255 97
0.0482875 -0.117269 -0.877 146 255 107
0.0497359 -0.117135 -0.876 136 255 117
0.0512394 -0.117135 -0.876 136 255 117
0.0528031 -0.117269 -0.877 146 255 107
0.0544322 -0.117536 -0.879 165 255 88
0.0562864 -0.118262 -0.884 202 255 51
0.0578698 -0.118396 -0.885 208 255 45
0.0591882 -0.117995 -0.882 188 255 65
0.0607715 -0.118128 -0.883 195 255 58
0.0623583 -0.118262 -0.884 202 255 51
0.0640931 -0.118664 -0.887 223 255 30
0.0656162 -0.118664 -0.887 223 255 30
0.0667609 -0.117995 -0.882 188 255 65
0.0683875 -0.118188 -0.883 195 255 58
0.0693504 -0.117251 -0.876 136 255 117
0.0711789 -0.117787 -0.88 173 255 80
0.0723604 -0.117251 -0.876 136 255 117
0.0744556 -0.118188 -0.883 195 255 58
0.0761447 -0.118456 -0.885 208 255 45
0.0785843 -0.119858 -0.895 255 217 0
0.0803913 -0.12026 -0.898 255 199 0
0.0822086 -0.120661 -0.901 255 173 0
0.0855237 -0.123206 -0.92 255 34 0
0.0864423 -0.122268 -0.913 255 82 0
-0.132742 -0.124814 -0.917 255 53 0
-0.12973 -0.123453 -0.907 255 130 0
-0.127691 -0.122997 -0.904 255 150 0
-0.126272 -0.123133 -0.905 255 143 0
-0.123609 -0.122044 -0.897 255 206 0
-0.121246 -0.121228 -0.891 255 251 0
-0.119917 -0.121438 -0.893 255 231 0
-0.118378 -0.121438 -0.893 255 231 0
-0.116577 -0.121166 -0.891 255 251 0
-0.115042 -0.121166 -0.891 255 251 0
-0.113054 -0.120683 -0.888 231 255 22
-0.111273 -0.120411 -0.886 215 255 38
-0.109623 -0.120275 -0.885 208 255 45
-0.107488 -0.119596 -0.88 173 255 80
-0.105491 -0.119052 -0.876 136 255 117
-0.103695 -0.118723 -0.874 117 254 136
-0.10184 -0.118316 -0.871 89 254 164
-0.101608 -0.11981 -0.882 188 255 65
-0.0995218 -0.119131 -0.877 146 255 107
-0.0971842 -0.118124 -0.87 81 255 172
-0.0953573 -0.117717 -0.867 56 255 197
-0.0933241 -0.117038 -0.862 6 255 247
-0.0930129 -0.118532 -0.873 107 255 146
-0.0917204 -0.118803 -0.875 127 255 126
-0.0895455 -0.117922 -0.869 73 254 180
-0.0884564 -0.118465 -0.873 107 255 146
-0.0861582 -0.117379 -0.865 34 255 219
-0.0854538 -0.118465 -0.873 107 255 146
-0.0839525 -0.118465 -0.873 107 255 146
-0.0823207 -0.118277 -0.872 97 255 156
-0.0810071 -0.118548 -0.874 117 254 136
-0.0795958 -0.118684 -0.875 127 255 126
-0.0780917 -0.118684 -0.875 127 255 126
-0.0765001 -0.118548 -0.874 117 254 136
-0.0749977 -0.118548 -0.874 117 254 136
-0.0734565 -0.118486 -0.874 117 254 136
-0.0717903 -0.118215 -0.872 97 255 156
-0.0702922 -0.118215 -0.872 97 255 156
-0.0685574 -0.117808 -0.869 73 254 180
-0.0672188 -0.118079 -0.871 89 254 164
-0.0649678 -0.116723 -0.861 0 253 255
-0.0637098 -0.11713 -0.864 23 255 230
-0.0616179 -0.115987 -0.856 0 224 255
-0.0600075 -0.115716 -0.854 0 211 255
-0.0583354 -0.115309 -0.851 0 189 255
-0.0568073 -0.115174 -0.85 0 181 254
-0.0550221 -0.114496 -0.845 0 151 255
-0.0542051 -0.115851 -0.855 0 217 254
-0.0523051 -0.114903 -0.848 0 169 255
-0.050849 -0.114903 -0.848 0 169 255
-0.0495434 -0.115253 -0.851 0 189 255
-0.0481958 -0.115524 -0.853 0 204 255
-0.0466222 -0.115253 -0.851 0 189 255
-0.0452678 -0.115524 -0.853 0 204 255
-0.0439065 -0.115795 -0.855 0 217 254
-0.042439 -0.115795 -0.855 0 217 254
-0.0409715 -0.115795 -0.855 0 217 254
-0.0395041 -0.115795 -0.855 0 217 254
-0.0381256 -0.116066 -0.857 0 230 255
-0.0366975 -0.116201 -0.858 0 235 255
-0.0351838 -0.116066 -0.857 0 230 255
-0.0336548 -0.115866 -0.856 0 224 255
-0.0321865 -0.115866 -0.856 0 224 255
-0.0306822 -0.11573 -0.855 0 217 254
-0.0291814 -0.115595 -0.854 0 211 255
-0.0277165 -0.115595 -0.854 0 211 255
-0.0262823 -0.11573 -0.855 0 217 254
-0.0247576 -0.11546 -0.853 0 204 255
-0.0232125 -0.115054 -0.85 0 181 254
-0.0216008 -0.114241 -0.844 0 142 255
-0.0200575 -0.1137 -0.84 0 110 254
-0.0185723 -0.113429 -0.838 0 95 255
-0.0171144 -0.113294 -0.837 0 89 254
-0.0156786 -0.113294 -0.837 0 89 254
-0.0142599 -0.113429 -0.838 0 95 255
-0.0128071 -0.113294 -0.837 0 89 254
-0.0113577 -0.113159 -0.836 0 84 255
-0.0099474 -0.113429 -0.838 0 95 255
-0.00850992 -0.113429 -0.838 0 95 255
-0.00708088 -0.113565 -0.839 0 102 255
-0.00563495 -0.113429 -0.838 0 95 255
-0.00421751 -0.113971 -0.842 0 125 254
-0.00278304 -0.114377 -0.845 0 151 255
-0.00133671 -0.114648 -0.847 0 164 255
0.000116214 -0.114648 -0.847 0 164 255
0.00157469 -0.115054 -0.85 0 181 254
0.00303276 -0.115054 -0.85 0 181 254
0.00449611 -0.115189 -0.851 0 189 255
0.0059419 -0.114918 -0.849 0 174 255
0.00738954 -0.114783 -0.848 0 169 255
0.00884417 -0.114783 -0.848 0 169 255
0.0103231 -0.115054 -0.85 0 181 254
0.0117673 -0.114918 -0.849 0 174 255
0.0132081 -0.114783 -0.848 0 169 255
0.0146627 -0.114783 -0.848 0 169 255
0.0161364 -0.114918 -0.849 0 174 255
0.017572 -0.114783 -0.848 0 169 255
0.0190939 -0.115189 -0.851 0 189 255
0.0205054 -0.114918 -0.849 0 174 255
0.0220652 -0.11546 -0.853 0 204 255
0.0238043 -0.116813 -0.863 15 255 238
0.025314 -0.116949 -0.864 23 255 230
0.0268271 -0.117084 -0.865 34 255 219
0.0283763 -0.117355 -0.867 56 255 197
0.0297946 -0.117084 -0.865 34 255 219
0.0314592 -0.117761 -0.87 81 255 172
