ply
format ascii 1.0
element vertex 1320
property float32 x
property float32 y
property float32 z
property uchar diffuse_red
property uchar diffuse_green
property uchar diffuse_blue
end_header
-0.00737042 -0.20479 -1.091 184 0 0
-0.00548016 -0.204415 -1.089 190 0 0
-0.00359347 -0.203851 -1.086 196 0 0
-0.00171554 -0.203101 -1.082 196 0 0
0.000148048 -0.201599 -1.074 201 0 0
0.00199895 -0.201599 -1.074 204 0 0
0.00384628 -0.201411 -1.073 201 0 0
0.00566361 -0.200285 -1.067 206 0 0
0.0074673 -0.199346 -1.062 218 0 0
0.00922748 -0.197845 -1.054 229 0 0
0.0110649 -0.19822 -1.056 235 0 0
0.0127505 -0.196155 -1.045 248 0 0
0.0144122 -0.194278 -1.035 244 0 0
0.0160864 -0.192964 -1.028 235 0 0
0.0177364 -0.19165 -1.021 240 0 0
0.0193814 -0.190524 -1.015 235 0 0
0.0210474 -0.189773 -1.011 240 0 0
0.0227446 -0.189398 -1.009 240 0 0
0.0244592 -0.18921 -1.008 240 0 0
0.0261444 -0.188835 -1.006 244 0 0
0.0278504 -0.188647 -1.005 244 0 0
0.0295824 -0.188647 -1.005 248 0 0
0.0312521 -0.188272 -1.003 248 0 0
0.0329149 -0.187896 -1.001 244 0 0
0.03464 -0.187896 -1.001 244 0 0
0.0363651 -0.187896 -1.001 244 0 0
0.0380335 -0.187617 -0.999 244 0 0
0.0395571 -0.186678 -0.994 248 0 0
0.0412295 -0.18649 -0.993 255 13 0
0.0428984 -0.186302 -0.992 255 5 0
0.0446089 -0.186302 -0.992 255 13 0
0.0462727 -0.186114 -0.991 255 13 0
0.0479814 -0.186114 -0.991 255 5 0
0.04964 -0.185927 -0.99 255 5 0
0.0512952 -0.185739 -0.989 255 5 0
0.0528397 -0.185175 -0.986 254 0 0
0.0543739 -0.184612 -0.983 254 0 0
0.0560688 -0.184612 -0.983 254 0 0
0.0577277 -0.184497 -0.982 255 13 0
0.059361 -0.184309 -0.981 255 21 0
0.0609287 -0.183933 -0.979 255 27 0
0.0624256 -0.183369 -0.976 255 27 0
0.0641748 -0.183557 -0.977 255 27 0
0.0656578 -0.182994 -0.974 255 27 0
0.0675453 -0.183557 -0.977 255 27 0
0.069018 -0.182994 -0.974 255 21 0
0.0706633 -0.182904 -0.973 255 34 0
0.0723426 -0.182904 -0.973 255 27 0
0.0739458 -0.182716 -0.972 255 34 0
0.0757789 -0.183092 -0.974 255 34 0
0.0773804 -0.182904 -0.973 255 47 0
0.0791409 -0.183092 -0.974 255 13 0
0.0808219 -0.183092 -0.974 255 27 0
0.082294 -0.182628 -0.971 255 40 0
0.0840572 -0.182816 -0.972 255 34 0
0.0857356 -0.182816 -0.972 255 40 0
0.0870543 -0.182064 -0.968 255 51 0
0.0888176 -0.182252 -0.969 255 51 0
0.0902107 -0.181688 -0.966 255 51 0
0.0919305 -0.18179 -0.966 255 56 0
0.0935996 -0.18179 -0.966 255 51 0
0.0952686 -0.18179 -0.966 255 56 0
0.0967369 -0.181414 -0.964 255 60 0
0.0984025 -0.181414 -0.964 255 71 0
0.100007 -0.181304 -0.963 255 90 0
0.101355 -0.180739 -0.96 255 96 0
0.102907 -0.18055 -0.959 255 84 0
0.104456 -0.180362 -0.958 255 71 0
0.10578 -0.179797 -0.955 255 96 0
0.107043 -0.179149 -0.951 255 101 0
0.108459 -0.178773 -0.949 255 101 0
0.109985 -0.178584 -0.948 255 101 0
0.111742 -0.178773 -0.949 255 120 0
0.113264 -0.178584 -0.948 255 120 0
0.114713 -0.178288 -0.946 255 128 0
0.116227 -0.178099 -0.945 255 128 0
0.117488 -0.177534 -0.942 255 133 0
0.118865 -0.177157 -0.94 255 133 0
0.12018 -0.176699 -0.937 255 137 0
0.121932 -0.176888 -0.938 255 137 0
0.122503 -0.175379 -0.93 255 147 0
0.123712 -0.174814 -0.927 255 147 0
0.12497 -0.174329 -0.924 255 142 0
0.126571 -0.174329 -0.924 255 162 0
0.12831 -0.174518 -0.925 255 147 0
0.129772 -0.174329 -0.924 255 153 0
0.131862 -0.174978 -0.927 255 162 0
0.133612 -0.175167 -0.928 255 162 0
0.135803 -0.175922 -0.932 255 133 0
0.137713 -0.1763 -0.934 255 137 0
0.139698 -0.176763 -0.936 255 120 0
0.141471 -0.176952 -0.937 255 124 0
0.142791 -0.176574 -0.935 0 0 0
0.14673 -0.177416 -0.939 0 0 0
0.148675 -0.177794 -0.941 0 0 0
0.150307 -0.177794 -0.941 0 0 0
0.153333 -0.179425 -0.949 0 0 0
0.158737 -0.183774 -0.972 0 0 0
0.161249 -0.184719 -0.977 0 0 0
0.166198 -0.188407 -0.996 0 0 0
0.168771 -0.189353 -1.001 0 0 0
0.171532 -0.190488 -1.007 0 0 0
0.175436 -0.192858 -1.019 0 0 0
0.178424 -0.194183 -1.026 0 0 0
0.184247 -0.198536 -1.049 0 0 0
-0.0191303 -0.211975 -1.119 168 0 0
-0.0170943 -0.210649 -1.112 168 0 0
-0.0151096 -0.209702 -1.107 171 0 0
-0.0131184 -0.208376 -1.1 178 0 0
-0.0111512 -0.20705 -1.093 180 0 0
-0.00922519 -0.206103 -1.088 180 0 0
-0.00732989 -0.205534 -1.085 184 0 0
-0.00542983 -0.204398 -1.079 193 0 0
-0.003567 -0.204208 -1.078 193 0 0
-0.00170762 -0.204019 -1.077 196 0 0
0.00014791 -0.203261 -1.073 201 0 0
0.00199337 -0.202882 -1.071 206 0 0
0.00379968 -0.200798 -1.06 209 0 0
0.00559991 -0.199851 -1.055 213 0 0
0.00738995 -0.199094 -1.051 218 0 0
0.00917496 -0.198525 -1.048 229 0 0
0.0109706 -0.198336 -1.047 240 0 0
0.0127017 -0.197199 -1.041 240 0 0
0.0143983 -0.195873 -1.034 248 0 0
0.0161646 -0.195684 -1.033 244 0 0
0.0178406 -0.194547 -1.027 235 0 0
0.0194578 -0.193032 -1.019 240 0 0
0.0211723 -0.192653 -1.017 240 0 0
0.0227672 -0.191327 -1.01 240 0 0
0.0245078 -0.191327 -1.01 240 0 0
0.0261704 -0.190759 -1.007 240 0 0
0.0278781 -0.190569 -1.006 240 0 0
0.0295976 -0.190477 -1.005 240 0 0
0.0312993 -0.190288 -1.004 244 0 0
0.0329317 -0.189719 -1.001 248 0 0
0.0346577 -0.189719 -1.001 248 0 0
0.0363837 -0.189719 -1.001 254 0 0
0.0379955 -0.18915 -0.998 248 0 0
0.0395969 -0.188582 -0.995 254 0 0
0.041354 -0.188771 -0.996 255 5 0
0.0430714 -0.188771 -0.996 255 5 0
0.0446988 -0.188392 -0.994 254 0 0
0.0463194 -0.188013 -0.992 254 0 0
0.0479814 -0.187824 -0.991 254 0 0
0.04964 -0.187634 -0.99 255 5 0
0.0512115 -0.187139 -0.987 255 5 0
0.0528068 -0.18676 -0.985 254 0 0
0.0543952 -0.186381 -0.983 254 0 0
0.0560338 -0.186191 -0.982 255 5 0
0.0576689 -0.186001 -0.981 255 13 0
0.0593005 -0.185812 -0.98 255 21 0
0.060991 -0.185812 -0.98 255 21 0
0.0625535 -0.185433 -0.978 255 27 0
0.0639777 -0.184674 -0.974 255 40 0
0.065693 -0.184773 -0.974 255 34 0
0.0673048 -0.184584 -0.973 255 21 0
0.0689841 -0.184584 -0.973 255 21 0
0.070736 -0.184773 -0.974 255 34 0
0.0724169 -0.184773 -0.974 255 34 0
0.0740219 -0.184584 -0.973 255 51 0
0.0757789 -0.184773 -0.974 255 56 0
0.0774229 -0.184685 -0.973 255 56 0
0.0789405 -0.184305 -0.971 255 40 0
0.0805342 -0.184115 -0.97 255 34 0
0.0818702 -0.183356 -0.966 255 47 0
0.0836248 -0.183546 -0.967 255 51 0
0.0852064 -0.183356 -0.966 255 51 0
0.0867845 -0.183166 -0.965 255 56 0
0.0881339 -0.18251 -0.961 255 60 0
0.0897943 -0.18251 -0.961 255 51 0
0.0915499 -0.1827 -0.962 255 60 0
0.0935027 -0.18327 -0.965 255 65 0
0.09517 -0.18327 -0.965 255 78 0
0.0966783 -0.182969 -0.963 255 84 0
0.0982408 -0.182779 -0.962 255 90 0
0.0997997 -0.182589 -0.961 255 90 0
0.101144 -0.182019 -0.958 255 101 0
0.102585 -0.181639 -0.956 255 101 0
0.10419 -0.181555 -0.955 255 101 0
0.105509 -0.180985 -0.952 255 107 0
0.106818 -0.180415 -0.949 255 115 0
0.108345 -0.180225 -0.948 255 124 0
0.109869 -0.180034 -0.947 255 124 0
0.111557 -0.180115 -0.947 255 133 0
0.113195 -0.180115 -0.947 255 137 0
0.114349 -0.179355 -0.943 255 133 0
0.115612 -0.178784 -0.94 255 133 0
0.116739 -0.178023 -0.936 255 137 0
0.118684 -0.178513 -0.938 255 133 0
0.12018 -0.178322 -0.937 255 137 0
0.120762 -0.1768 -0.929 255 147 0
0.121976 -0.176229 -0.926 255 147 0
0.12337 -0.17593 -0.924 255 147 0
0.124835 -0.17574 -0.923 255 158 0
0.126571 -0.17593 -0.924 255 158 0
0.12831 -0.176121 -0.925 255 153 0
0.130114 -0.176395 -0.926 255 172 0
0.131862 -0.176586 -0.927 255 176 0
0.134332 -0.177728 -0.933 255 189 0
0.135723 -0.177433 -0.931 255 185 0
0.13778 -0.178005 -0.934 255 202 0
0.139548 -0.178196 -0.935 255 128 0
0.141471 -0.178577 -0.937 255 115 0
0.143319 -0.178855 -0.938 0 0 0
0.144328 -0.178092 -0.934 0 0 0
0.14673 -0.179046 -0.939 0 0 0
0.148457 -0.179165 -0.939 0 0 0
0.152325 -0.181836 -0.953 0 0 0
0.156565 -0.184889 -0.969 0 0 0
0.159716 -0.186607 -0.978 0 0 0
0.164304 -0.189947 -0.995 0 0 0
0.166532 -0.19052 -0.998 0 0 0
0.168603 -0.190901 -1 0 0 0
0.173154 -0.194056 -1.016 0 0 0
0.176125 -0.195393 -1.023 0 0 0
0.179468 -0.197112 -1.032 0 0 0
-0.0233484 -0.217265 -1.136 163 0 0
-0.0209943 -0.213249 -1.115 165 0 0
-0.0189691 -0.212101 -1.109 168 0 0
-0.01698 -0.211145 -1.104 168 0 0
-0.0149398 -0.209232 -1.094 171 0 0
-0.0130058 -0.208467 -1.09 174 0 0
-0.0110798 -0.207596 -1.086 178 0 0
-0.00918279 -0.207022 -1.083 182 0 0
-0.00729611 -0.206449 -1.08 187 0 0
-0.00540467 -0.205302 -1.074 190 0 0
-0.00355376 -0.205302 -1.074 193 0 0
-0.0016981 -0.204729 -1.071 193 0 0
0.000147634 -0.204729 -1.071 196 0 0
0.00198406 -0.203773 -1.066 206 0 0
0.00377817 -0.201479 -1.054 209 0 0
0.00557337 -0.200714 -1.05 218 0 0
0.0073548 -0.19995 -1.046 222 0 0
0.0091662 -0.200141 -1.047 225 0 0
0.0109496 -0.199759 -1.045 232 0 0
0.0126594 -0.198331 -1.037 240 0 0
0.0144196 -0.197948 -1.035 248 0 0
0.0161416 -0.197183 -1.031 240 0 0
0.0178498 -0.196418 -1.027 235 0 0
0.0193722 -0.193932 -1.014 235 0 0
0.0212664 -0.195271 -1.021 235 0 0
0.0229818 -0.194888 -1.019 235 0 0
0.0245446 -0.193358 -1.011 240 0 0
0.0262358 -0.192976 -1.009 235 0 0
0.0278924 -0.192402 -1.006 235 0 0
0.0295976 -0.192211 -1.005 244 0 0
0.0312993 -0.192019 -1.004 248 0 0
0.0329646 -0.191637 -1.002 248 0 0
0.0346577 -0.191446 -1.001 248 0 0
0.0363474 -0.191254 -1 248 0 0
0.0379955 -0.190872 -0.998 248 0 0
0.0396765 -0.190681 -0.997 248 0 0
0.0414371 -0.190872 -0.998 254 0 0
0.0431147 -0.190681 -0.997 248 0 0
0.0446714 -0.18999 -0.993 254 0 0
0.0463376 -0.189799 -0.992 254 0 0
0.0479518 -0.189416 -0.99 254 0 0
0.0496595 -0.189416 -0.99 255 5 0
0.0512634 -0.189034 -0.988 255 5 0
0.0529677 -0.189034 -0.988 255 5 0
0.0545612 -0.188651 -0.986 255 5 0
0.0561479 -0.188268 -0.984 255 13 0
0.0577277 -0.187886 -0.982 255 13 0
0.0594215 -0.187886 -0.982 255 21 0
0.0610859 -0.187795 -0.981 255 27 0
0.062651 -0.187412 -0.979 255 13 0
0.0643406 -0.187412 -0.979 255 13 0
0.0658279 -0.186838 -0.976 255 21 0
0.0673048 -0.186263 -0.973 255 34 0
0.0689841 -0.186263 -0.973 255 34 0
0.0708086 -0.186646 -0.975 255 34 0
0.0723426 -0.186263 -0.973 255 40 0
0.0738342 -0.185791 -0.97 255 56 0
0.075587 -0.185983 -0.971 255 56 0
0.0773433 -0.186174 -0.972 255 56 0
0.0789405 -0.185983 -0.971 255 56 0
0.0804512 -0.1856 -0.969 255 51 0
0.0818702 -0.185025 -0.966 255 56 0
0.0835383 -0.185025 -0.966 255 56 0
0.0851661 -0.184938 -0.965 255 56 0
0.0868334 -0.184938 -0.965 255 60 0
0.0882256 -0.184363 -0.962 255 60 0
0.0897009 -0.183979 -0.96 255 60 0
0.0911692 -0.183596 -0.958 255 78 0
0.0930584 -0.184059 -0.96 255 90 0
0.0947177 -0.184059 -0.96 255 96 0
0.0963771 -0.184059 -0.96 255 90 0
0.0977301 -0.183484 -0.957 255 90 0
0.0994882 -0.183675 -0.958 255 101 0
0.100722 -0.182908 -0.954 255 111 0
0.102324 -0.182824 -0.953 255 115 0
0.103863 -0.182632 -0.952 255 111 0
0.105288 -0.182248 -0.95 255 111 0
0.106593 -0.181673 -0.947 255 128 0
0.10828 -0.181755 -0.947 255 133 0
0.10957 -0.181179 -0.944 255 133 0
0.111439 -0.181563 -0.946 255 133 0
0.112837 -0.181179 -0.944 255 133 0
0.114106 -0.180603 -0.941 255 128 0
0.11519 -0.179753 -0.936 255 133 0
0.116811 -0.179753 -0.936 255 133 0
0.117672 -0.178601 -0.93 255 128 0
0.119154 -0.178409 -0.929 255 158 0
0.120039 -0.177339 -0.923 255 153 0
0.121506 -0.177147 -0.922 255 158 0
0.123236 -0.177339 -0.923 255 158 0
0.124835 -0.177339 -0.923 255 165 0
0.126768 -0.177808 -0.925 255 172 0
0.12851 -0.178 -0.926 255 172 0
0.130536 -0.178577 -0.929 255 168 0
0.132715 -0.179346 -0.933 255 176 0
0.134253 -0.17924 -0.932 255 176 0
0.13616 -0.179625 -0.934 255 165 0
0.137927 -0.179817 -0.935 255 153 0
0.139698 -0.18001 -0.936 255 71 0
0.141541 -0.18029 -0.937 255 60 0
0.143014 -0.180098 -0.936 0 0 0
0.144637 -0.180098 -0.936 0 0 0
0.146671 -0.180603 -0.938 0 0 0
0.149564 -0.182143 -0.946 0 0 0
0.152485 -0.183684 -0.954 0 0 0
0.157857 -0.188112 -0.977 0 0 0
0.162085 -0.191098 -0.992 0 0 0
0.164634 -0.192061 -0.997 0 0 0
0.1672 -0.193024 -1.002 0 0 0
0.169365 -0.193509 -1.004 0 0 0
0.173325 -0.196015 -1.017 0 0 0
0.177502 -0.198713 -1.031 0 0 0
0.183042 -0.202867 -1.052 0 0 0
-0.0229374 -0.215365 -1.116 163 0 0
-0.0209001 -0.214207 -1.11 166 0 0
-0.0188665 -0.212856 -1.103 168 0 0
-0.0167646 -0.210347 -1.09 174 0 0
-0.0147896 -0.208997 -1.083 178 0 0
-0.0129342 -0.20919 -1.084 174 0 0
-0.0110242 -0.208418 -1.08 180 0 0
-0.0091366 -0.207839 -1.077 184 0 0
-0.00726605 -0.207453 -1.075 187 0 0
-0.00539737 -0.206874 -1.072 190 0 0
-0.00354565 -0.206681 -1.071 196 0 0
-0.00168787 -0.20533 -1.064 199 0 0
0.000146468 -0.204944 -1.062 201 0 0
0.00196832 -0.203979 -1.057 209 0 0
0.00376934 -0.202821 -1.051 213 0 0
0.0055603 -0.202049 -1.047 218 0 0
0.00733746 -0.201277 -1.043 222 0 0
0.00910082 -0.200505 -1.039 225 0 0
0.0108923 -0.200505 -1.039 232 0 0
0.0126594 -0.200119 -1.037 235 0 0
0.0144196 -0.199734 -1.035 244 0 0
0.0161103 -0.198576 -1.029 244 0 0
0.0178498 -0.19819 -1.027 240 0 0
0.0194104 -0.196067 -1.016 240 0 0
0.0211206 -0.195681 -1.014 240 0 0
0.0228239 -0.195295 -1.012 235 0 0
0.0245446 -0.195102 -1.011 235 0 0
0.0262098 -0.194523 -1.008 235 0 0
0.0278924 -0.194137 -1.006 235 0 0
0.029627 -0.194137 -1.006 240 0 0
0.0313304 -0.193944 -1.005 248 0 0
0.0330304 -0.193751 -1.004 248 0 0
0.0346923 -0.193365 -1.002 244 0 0
0.036398 -0.193248 -1.001 248 0 0
0.0380104 -0.192669 -0.998 254 0 0
0.0397319 -0.192669 -0.998 254 0 0
0.0414118 -0.192476 -0.997 254 0 0
0.0429586 -0.191704 -0.993 254 0 0
0.0446714 -0.191704 -0.993 248 0 0
0.0463376 -0.191511 -0.992 254 0 0
0.0480003 -0.191318 -0.991 254 0 0
0.0497097 -0.191318 -0.991 254 0 0
0.0512634 -0.190738 -0.988 254 0 0
0.0529677 -0.190738 -0.988 255 5 0
0.0546166 -0.190545 -0.987 255 13 0
0.056178 -0.190068 -0.984 255 13 0
0.0578174 -0.189875 -0.983 255 21 0
0.0595139 -0.189875 -0.983 255 13 0
0.0611482 -0.189682 -0.982 255 13 0
0.062779 -0.189489 -0.981 255 21 0
0.0645378 -0.189682 -0.982 255 27 0
0.0658953 -0.188716 -0.977 255 40 0
0.0675123 -0.188523 -0.976 255 40 0
0.0693057 -0.18882 -0.977 255 40 0
0.0706295 -0.187853 -0.972 255 47 0
0.072308 -0.187853 -0.972 255 51 0
0.0739864 -0.187853 -0.972 255 56 0
0.075587 -0.18766 -0.971 255 56 0
0.0771046 -0.187273 -0.969 255 60 0
0.0786966 -0.18708 -0.968 255 60 0
0.0803303 -0.186992 -0.967 255 65 0
0.0819163 -0.186799 -0.966 255 65 0
0.0835853 -0.186799 -0.966 255 60 0
0.0851661 -0.186605 -0.965 255 71 0
0.0867435 -0.186412 -0.964 255 84 0
0.0880422 -0.185639 -0.96 255 90 0
0.0895526 -0.185332 -0.958 255 90 0
0.0912085 -0.185332 -0.958 255 90 0
0.0926706 -0.184945 -0.956 255 101 0
0.0943231 -0.184945 -0.956 255 101 0
0.0958752 -0.184751 -0.955 255 96 0
0.0974238 -0.184558 -0.954 255 111 0
0.0989232 -0.184279 -0.952 255 111 0
0.100358 -0.183892 -0.95 255 120 0
0.102109 -0.184086 -0.951 255 120 0
0.103535 -0.183698 -0.949 255 128 0
0.104955 -0.183311 -0.947 255 124 0
0.105965 -0.182232 -0.941 255 128 0
0.107479 -0.182038 -0.94 255 128 0
0.10899 -0.181844 -0.939 255 128 0
0.110497 -0.181651 -0.938 255 133 0
0.112308 -0.181956 -0.939 255 137 0
0.113569 -0.181374 -0.936 255 137 0
0.115067 -0.181181 -0.935 255 153 0
0.116062 -0.180212 -0.93 255 158 0
0.117166 -0.179437 -0.926 255 158 0
0.11844 -0.178939 -0.923 255 162 0
0.119778 -0.178551 -0.921 255 168 0
0.121374 -0.178551 -0.921 255 165 0
0.123236 -0.178939 -0.923 255 168 0
0.125165 -0.179412 -0.925 255 180 0
0.126905 -0.179606 -0.926 255 189 0
0.128649 -0.1798 -0.927 255 180 0
0.130396 -0.179994 -0.928 255 176 0
0.132494 -0.180663 -0.931 255 176 0
0.134253 -0.180857 -0.932 255 176 0
0.13616 -0.181245 -0.934 255 165 0
0.137552 -0.180946 -0.932 255 133 0
0.139468 -0.181334 -0.934 255 124 0
0.141541 -0.181916 -0.937 0 0 0
0.143319 -0.182111 -0.938 0 0 0
0.145043 -0.182232 -0.938 0 0 0
0.147609 -0.183398 -0.944 0 0 0
0.150039 -0.184369 -0.949 0 0 0
0.153842 -0.18699 -0.962 0 0 0
0.160039 -0.192432 -0.99 0 0 0
0.162739 -0.193599 -0.996 0 0 0
0.164964 -0.194182 -0.999 0 0 0
0.166785 -0.194282 -0.999 0 0 0
0.169533 -0.195449 -1.005 0 0 0
0.174518 -0.199144 -1.024 0 0 0
0.179318 -0.202556 -1.041 0 0 0
-0.0247725 -0.216511 -1.112 164 0 0
-0.0227524 -0.215537 -1.107 164 0 0
-0.0207495 -0.214564 -1.102 166 0 0
-0.0187296 -0.213201 -1.095 168 0 0
-0.0167493 -0.212033 -1.089 174 0 0
-0.0148169 -0.211254 -1.085 174 0 0
-0.0128745 -0.210086 -1.079 174 0 0
-0.0110038 -0.209891 -1.078 180 0 0
-0.00911963 -0.209307 -1.075 184 0 0
-0.00723901 -0.208528 -1.071 190 0 0
-0.00537723 -0.207944 -1.068 196 0 0
-0.00352579 -0.20736 -1.065 199 0 0
-0.00167835 -0.205997 -1.058 204 0 0
0.000145365 -0.205218 -1.054 206 0 0
0.00196087 -0.205023 -1.053 213 0 0
0.00376217 -0.204245 -1.049 213 0 0
0.00555499 -0.203661 -1.046 213 0 0
0.00732339 -0.202687 -1.041 218 0 0
0.0090833 -0.201908 -1.037 225 0 0
0.0108714 -0.201908 -1.037 232 0 0
0.012635 -0.201519 -1.035 232 0 0
0.0143778 -0.200935 -1.032 240 0 0
0.0160946 -0.200156 -1.028 235 0 0
0.017815 -0.199572 -1.025 235 0 0
0.0194486 -0.198209 -1.018 240 0 0
0.0211206 -0.19743 -1.014 235 0 0
0.0228239 -0.197041 -1.012 235 0 0
0.0245689 -0.197041 -1.012 235 0 0
0.0262201 -0.196339 -1.008 235 0 0
0.0279311 -0.196144 -1.007 240 0 0
0.0296092 -0.195755 -1.005 248 0 0
0.0312804 -0.195365 -1.003 254 0 0
0.0329447 -0.194975 -1.001 254 0 0
0.0346713 -0.194975 -1.001 254 0 0
0.036398 -0.194975 -1.001 248 0 0
0.0380485 -0.194586 -0.999 248 0 0
0.0397319 -0.194391 -0.998 248 0 0
0.0414118 -0.194196 -0.997 254 0 0
0.0429586 -0.193417 -0.993 254 0 0
0.0446264 -0.193222 -0.992 254 0 0
0.0463376 -0.193222 -0.992 254 0 0
0.0480003 -0.193028 -0.991 255 5 0
0.0496861 -0.192936 -0.99 255 5 0
0.0513428 -0.192741 -0.989 255 5 0
0.0528888 -0.192157 -0.986 255 13 0
0.0545905 -0.192157 -0.986 255 13 0
0.0561209 -0.191572 -0.983 255 5 0
0.0577586 -0.191377 -0.982 255 13 0
0.0592718 -0.190792 -0.979 255 21 0
0.0610236 -0.190987 -0.98 255 27 0
0.062715 -0.190987 -0.98 255 34 0
0.0641787 -0.190312 -0.976 255 34 0
0.0659315 -0.190507 -0.977 255 40 0
0.0676186 -0.190507 -0.977 255 47 0
0.0690929 -0.189922 -0.974 255 47 0
0.0707748 -0.189922 -0.974 255 47 0
0.072308 -0.189532 -0.972 255 51 0
0.0738342 -0.189142 -0.97 255 60 0
0.0755092 -0.189142 -0.97 255 60 0
0.0770684 -0.188859 -0.968 255 60 0
0.0785782 -0.188468 -0.966 255 65 0
0.0802473 -0.188468 -0.966 255 65 0
0.0819163 -0.188468 -0.966 255 65 0
0.0834123 -0.188078 -0.964 255 78 0
0.0849014 -0.187688 -0.962 255 84 0
0.0864208 -0.187379 -0.96 255 96 0
0.0878967 -0.186988 -0.958 255 111 0
0.0894591 -0.186793 -0.957 255 107 0
0.0911133 -0.186793 -0.957 255 101 0
0.0924767 -0.186208 -0.954 255 107 0
0.0941257 -0.186208 -0.954 255 107 0
0.0956301 -0.185926 -0.952 255 101 0
0.0971745 -0.185731 -0.951 255 115 0
0.0986114 -0.18534 -0.949 255 124 0
0.100041 -0.18495 -0.947 255 120 0
0.101787 -0.185145 -0.948 255 124 0
0.103473 -0.185228 -0.948 255 133 0
0.104448 -0.184056 -0.942 255 124 0
0.10574 -0.18347 -0.939 255 128 0
0.107365 -0.18347 -0.939 255 133 0
0.108873 -0.183274 -0.938 255 133 0
0.110446 -0.183191 -0.937 255 137 0
0.112068 -0.183191 -0.937 255 137 0
0.113327 -0.182604 -0.934 255 147 0
0.114452 -0.181822 -0.93 255 158 0
0.115117 -0.180343 -0.922 255 162 0
0.116841 -0.180538 -0.923 255 168 0
0.117926 -0.179756 -0.919 255 176 0
0.119518 -0.179756 -0.919 255 176 0
0.121431 -0.180233 -0.921 255 176 0
0.123028 -0.180233 -0.921 255 176 0
0.125165 -0.181015 -0.925 255 172 0
0.126905 -0.181211 -0.926 255 172 0
0.128433 -0.181103 -0.925 255 180 0
0.130177 -0.181299 -0.926 255 176 0
0.132352 -0.182082 -0.93 255 202 0
0.134253 -0.182473 -0.932 255 180 0
0.13579 -0.182367 -0.931 255 142 0
0.1377 -0.182759 -0.933 255 133 0
0.13902 -0.182367 -0.931 255 115 0
0.140937 -0.182759 -0.933 0 0 0
0.145198 -0.184057 -0.939 0 0 0
0.147922 -0.185429 -0.946 0 0 0
0.152646 -0.18925 -0.965 0 0 0
0.155761 -0.191015 -0.974 0 0 0
0.160524 -0.194741 -0.993 0 0 0
0.162902 -0.195525 -0.997 0 0 0
0.165049 -0.196019 -0.999 0 0 0
0.167119 -0.196411 -1.001 0 0 0
0.171895 -0.199943 -1.019 0 0 0
0.177338 -0.204171 -1.04 0 0 0
0.180868 -0.206134 -1.05 0 0 0
-0.0269645 -0.220676 -1.123 164 0 0
-0.0246708 -0.217532 -1.107 168 0 0
-0.0225146 -0.215174 -1.095 174 0 0
-0.0204374 -0.213209 -1.085 178 0 0
-0.018583 -0.213406 -1.086 178 0 0
-0.0166635 -0.212816 -1.083 180 0 0
-0.0147408 -0.21203 -1.079 180 0 0
-0.0128676 -0.211834 -1.078 180 0 0
-0.0109775 -0.211244 -1.075 187 0 0
-0.00908927 -0.210458 -1.071 190 0 0
-0.00721481 -0.209672 -1.067 193 0 0
-0.00534912 -0.20869 -1.062 201 0 0
-0.0035073 -0.2081 -1.059 204 0 0
-0.00167266 -0.207118 -1.054 204 0 0
0.00014487 -0.206331 -1.05 209 0 0
0.00195419 -0.206135 -1.049 213 0 0
0.0037493 -0.205349 -1.045 218 0 0
0.00554123 -0.204956 -1.043 222 0 0
0.00729811 -0.203777 -1.037 225 0 0
0.00906935 -0.203384 -1.035 229 0 0
0.0108337 -0.202991 -1.033 232 0 0
0.0125911 -0.202598 -1.031 232 0 0
0.0143277 -0.202008 -1.028 235 0 0
0.0160696 -0.201615 -1.026 229 0 0
0.017822 -0.201419 -1.025 235 0 0
0.0194945 -0.200436 -1.02 235 0 0
0.0211706 -0.19965 -1.016 235 0 0
0.0227426 -0.198078 -1.008 240 0 0
0.0245542 -0.198668 -1.011 240 0 0
0.0261941 -0.197882 -1.007 244 0 0
0.0279034 -0.197685 -1.006 254 0 0
0.0296092 -0.197489 -1.005 248 0 0
0.0312492 -0.196899 -1.002 248 0 0
0.0329447 -0.196703 -1.001 254 0 0
0.034706 -0.196899 -1.002 248 0 0
0.036398 -0.196703 -1.001 248 0 0
0.0380485 -0.19631 -0.999 248 0 0
0.0397319 -0.196113 -0.998 254 0 0
0.0414118 -0.195917 -0.997 254 0 0
0.0430248 -0.195432 -0.994 254 0 0
0.0446953 -0.195235 -0.993 254 0 0
0.0463157 -0.194842 -0.991 255 5 0
0.048026 -0.194842 -0.991 255 5 0
0.0496861 -0.194645 -0.99 255 5 0
0.0513428 -0.194449 -0.989 255 5 0
0.0528888 -0.193859 -0.986 255 13 0
0.054369 -0.193072 -0.982 255 13 0
0.0559496 -0.192679 -0.98 255 13 0
0.0575821 -0.192483 -0.979 255 21 0
0.0591226 -0.191998 -0.976 255 21 0
0.0608703 -0.192195 -0.977 255 40 0
0.0624933 -0.191998 -0.976 255 47 0
0.0639157 -0.191211 -0.972 255 40 0
0.0656616 -0.191408 -0.973 255 34 0
0.0672726 -0.191211 -0.972 255 51 0
0.068951 -0.191211 -0.972 255 56 0
0.0705568 -0.191015 -0.971 255 60 0
0.072051 -0.190532 -0.968 255 65 0
0.0737234 -0.190532 -0.968 255 78 0
0.0754738 -0.190729 -0.969 255 78 0
0.0771481 -0.190729 -0.969 255 78 0
0.0784969 -0.189941 -0.965 255 96 0
0.0799981 -0.189548 -0.963 255 96 0
0.0815771 -0.189351 -0.962 255 96 0
0.083102 -0.189039 -0.96 255 96 0
0.0845848 -0.188645 -0.958 255 107 0
0.0861507 -0.188448 -0.957 255 107 0
0.0877132 -0.188251 -0.956 255 111 0
0.0893657 -0.188251 -0.956 255 111 0
0.0909229 -0.188054 -0.955 255 111 0
0.0924341 -0.18777 -0.953 255 111 0
0.0938849 -0.187376 -0.951 255 115 0
0.0953287 -0.186982 -0.949 255 115 0
0.0968679 -0.186785 -0.948 255 120 0
0.0982997 -0.186391 -0.946 255 133 0
0.0996637 -0.185884 -0.943 255 133 0
0.101188 -0.185687 -0.942 255 133 0
0.102709 -0.185489 -0.941 255 137 0
0.104115 -0.185095 -0.939 255 142 0
0.105627 -0.184898 -0.938 255 137 0
0.107202 -0.184814 -0.937 255 133 0
0.108592 -0.184419 -0.935 255 137 0
0.109857 -0.183828 -0.932 255 147 0
0.110992 -0.183039 -0.928 255 158 0
0.112841 -0.183433 -0.93 255 162 0
0.114259 -0.183124 -0.928 255 162 0
0.115117 -0.18194 -0.922 255 165 0
0.116461 -0.181546 -0.92 255 172 0
0.117926 -0.181348 -0.919 255 172 0
0.119445 -0.181237 -0.918 255 180 0
0.121431 -0.181829 -0.921 255 180 0
0.122894 -0.181632 -0.92 255 176 0
0.125436 -0.183014 -0.927 255 176 0
0.126966 -0.182905 -0.926 255 180 0
0.128711 -0.183102 -0.927 255 180 0
0.130318 -0.183102 -0.927 255 176 0
0.132352 -0.183695 -0.93 255 180 0
0.134319 -0.18418 -0.932 255 158 0
0.13579 -0.183983 -0.931 255 128 0
0.137257 -0.183785 -0.93 255 176 0
0.138813 -0.18371 -0.929 0 0 0
0.141333 -0.184896 -0.935 0 0 0
0.143262 -0.185292 -0.937 0 0 0
0.145661 -0.186281 -0.942 0 0 0
0.150188 -0.189937 -0.96 0 0 0
0.154544 -0.1933 -0.977 0 0 0
0.15832 -0.195872 -0.99 0 0 0
0.160931 -0.196963 -0.995 0 0 0
0.16315 -0.197557 -0.998 0 0 0
0.16538 -0.198151 -1.001 0 0 0
0.169623 -0.20112 -1.016 0 0 0
0.174011 -0.204197 -1.031 0 0 0
0.178702 -0.207564 -1.048 0 0 0
-0.0266524 -0.220037 -1.11 168 0 0
-0.0244925 -0.217857 -1.099 178 0 0
-0.022309 -0.215081 -1.085 180 0 0
-0.0203432 -0.21409 -1.08 180 0 0
-0.018429 -0.213496 -1.077 180 0 0
-0.0165866 -0.213694 -1.078 182 0 0
-0.0146725 -0.212901 -1.074 182 0 0
-0.0127841 -0.212306 -1.071 190 0 0
-0.010906 -0.211711 -1.068 193 0 0
-0.00902137 -0.21072 -1.063 193 0 0
-0.00716072 -0.209927 -1.059 199 0 0
-0.00532394 -0.209531 -1.057 201 0 0
-0.00349406 -0.209134 -1.055 209 0 0
-0.00166473 -0.207945 -1.049 213 0 0
0.000144732 -0.207945 -1.049 213 0 0
0.0019486 -0.20735 -1.046 213 0 0
0.00374571 -0.206954 -1.044 218 0 0
0.00551998 -0.205963 -1.039 222 0 0
0.00728404 -0.20517 -1.035 229 0 0
0.0090343 -0.204377 -1.031 235 0 0
0.0108022 -0.204179 -1.03 235 0 0
0.0125423 -0.203584 -1.027 235 0 0
0.0142998 -0.203386 -1.026 235 0 0
0.016007 -0.202593 -1.022 229 0 0
0.0177525 -0.202395 -1.021 240 0 0
0.0193798 -0.201007 -1.014 240 0 0
0.0211289 -0.201007 -1.014 240 0 0
0.0227426 -0.199818 -1.008 240 0 0
0.0245542 -0.200412 -1.011 244 0 0
0.0261681 -0.199421 -1.006 248 0 0
0.0278756 -0.199223 -1.005 248 0 0
0.0295797 -0.199025 -1.004 248 0 0
0.0312492 -0.198628 -1.002 248 0 0
0.0329118 -0.198232 -1 254 0 0
0.0346553 -0.198338 -1 254 0 0
0.0363447 -0.19814 -0.999 248 0 0
0.0380689 -0.19814 -0.999 254 0 0
0.039793 -0.19814 -0.999 254 0 0
0.0415171 -0.19814 -0.999 254 0 0
0.0431547 -0.197743 -0.997 254 0 0
0.0446953 -0.19695 -0.993 254 0 0
0.0463624 -0.196751 -0.992 254 0 0
0.048026 -0.196553 -0.991 254 0 0
0.0497865 -0.196751 -0.992 255 13 0
0.0511871 -0.195561 -0.986 255 21 0
0.0526742 -0.194768 -0.982 255 13 0
0.0542881 -0.194478 -0.98 255 13 0
0.0557519 -0.193684 -0.976 255 13 0
0.0574961 -0.193883 -0.977 255 27 0
0.0593043 -0.19428 -0.979 255 27 0
0.060808 -0.193684 -0.976 255 40 0
0.0624293 -0.193486 -0.975 255 51 0
0.0638499 -0.192692 -0.971 255 51 0
0.0654592 -0.192494 -0.97 255 51 0
0.0672034 -0.192692 -0.971 255 60 0
0.0688479 -0.192602 -0.97 255 65 0
0.0703058 -0.192006 -0.967 255 65 0
0.0717532 -0.191411 -0.964 255 78 0
0.0734188 -0.191411 -0.964 255 90 0
0.075318 -0.192006 -0.967 255 90 0
0.0769888 -0.192006 -0.967 255 96 0
0.0784156 -0.191411 -0.964 255 101 0
0.0799495 -0.191096 -0.962 255 107 0
0.0813578 -0.1905 -0.959 255 111 0
0.0827558 -0.189904 -0.956 255 107 0
0.0844082 -0.189904 -0.956 255 111 0
0.0861507 -0.190103 -0.957 255 111 0
0.0876214 -0.189705 -0.955 255 115 0
0.0892311 -0.189618 -0.954 255 115 0
0.0906905 -0.189221 -0.952 255 111 0
0.0921431 -0.188823 -0.95 255 115 0
0.0935887 -0.188425 -0.948 255 120 0
0.0951279 -0.188227 -0.947 255 124 0
0.0965025 -0.187715 -0.944 255 128 0
0.098136 -0.187715 -0.944 255 133 0
0.0992409 -0.186721 -0.939 255 142 0
0.100866 -0.186721 -0.939 255 153 0
0.102381 -0.186522 -0.938 255 158 0
0.103846 -0.186238 -0.936 255 153 0
0.105354 -0.186039 -0.935 255 142 0
0.106973 -0.186039 -0.935 255 137 0
0.108127 -0.185243 -0.931 255 142 0
0.109385 -0.184646 -0.928 255 142 0
0.111164 -0.184931 -0.929 255 158 0
0.112409 -0.184334 -0.926 255 165 0
0.113766 -0.183936 -0.924 255 165 0
0.114868 -0.18314 -0.92 255 172 0
0.116516 -0.183227 -0.92 255 172 0
0.118111 -0.183227 -0.92 255 180 0
0.119705 -0.183227 -0.92 255 185 0
0.121431 -0.183426 -0.921 255 180 0
0.123488 -0.184112 -0.924 255 176 0
0.12509 -0.184112 -0.924 255 185 0
0.126692 -0.184112 -0.924 255 185 0
0.128572 -0.184511 -0.926 255 198 0
0.130382 -0.184801 -0.927 255 193 0
0.13256 -0.185598 -0.931 255 189 0
0.134175 -0.185598 -0.931 255 193 0
0.135498 -0.1852 -0.929 255 165 0
0.137496 -0.185722 -0.931 255 180 0
0.13971 -0.18652 -0.935 0 0 0
0.141635 -0.186919 -0.937 0 0 0
0.144179 -0.188116 -0.943 0 0 0
0.1462 -0.188611 -0.945 0 0 0
0.150031 -0.191405 -0.959 0 0 0
0.153753 -0.194 -0.972 0 0 0
0.158722 -0.198094 -0.992 0 0 0
0.161254 -0.199092 -0.997 0 0 0
0.163313 -0.199492 -0.999 0 0 0
0.165632 -0.200196 -1.002 0 0 0
0.17155 -0.205191 -1.027 0 0 0
0.17553 -0.207788 -1.04 0 0 0
0.180407 -0.211384 -1.058 0 0 0
-0.0285823 -0.222072 -1.11 171 0 0
-0.0264504 -0.220271 -1.101 174 0 0
-0.0243496 -0.21847 -1.092 171 0 0
-0.0222678 -0.216554 -1.083 178 0 0
-0.0202867 -0.215354 -1.077 180 0 0
-0.0184119 -0.215154 -1.076 182 0 0
-0.0165097 -0.214554 -1.073 182 0 0
-0.0146315 -0.214154 -1.071 184 0 0
-0.0127721 -0.213954 -1.07 190 0 0
-0.010855 -0.212555 -1.063 193 0 0
-0.00898743 -0.211755 -1.059 193 0 0
-0.00714719 -0.211355 -1.057 193 0 0
-0.00531386 -0.210955 -1.055 201 0 0
-0.00348743 -0.210555 -1.053 209 0 0
-0.00166473 -0.209755 -1.049 213 0 0
0.00014418 -0.208955 -1.045 218 0 0
0.00194301 -0.208555 -1.043 213 0 0
0.00373136 -0.207956 -1.04 218 0 0
0.00549873 -0.206956 -1.035 222 0 0
0.007277 -0.206756 -1.034 229 0 0
0.00904306 -0.206356 -1.032 232 0 0
0.0107812 -0.205556 -1.028 235 0 0
0.0125301 -0.205156 -1.026 232 0 0
0.014258 -0.204556 -1.023 235 0 0
0.016007 -0.204356 -1.022 232 0 0
0.0176655 -0.203157 -1.016 235 0 0
0.0194563 -0.203557 -1.018 240 0 0
0.0211402 -0.202865 -1.014 240 0 0
0.0228 -0.202065 -1.01 235 0 0
0.0245431 -0.202065 -1.01 244 0 0
0.0261821 -0.201265 -1.006 248 0 0
0.0278906 -0.201065 -1.005 248 0 0
0.0295956 -0.200865 -1.004 248 0 0
0.0312347 -0.200265 -1.001 254 0 0
0.0329623 -0.200265 -1.001 255 5 0
0.0346899 -0.200265 -1.001 254 0 0
0.0363447 -0.199864 -0.999 254 0 0
0.0380689 -0.199864 -0.999 254 0 0
0.0397532 -0.199664 -0.998 254 0 0
0.0414756 -0.199664 -0.998 254 0 0
0.0431114 -0.199264 -0.996 255 5 0
0.0447404 -0.198864 -0.994 255 5 0
0.0462689 -0.198064 -0.99 255 5 0
0.0481009 -0.198573 -0.992 255 13 0
0.0498138 -0.198573 -0.992 255 13 0
0.0513191 -0.197772 -0.988 255 13 0
0.0530252 -0.197772 -0.988 255 13 0
0.0546759 -0.197572 -0.987 255 21 0
0.0559804 -0.196171 -0.98 255 27 0
0.0575549 -0.195771 -0.978 255 40 0
0.0592437 -0.195771 -0.978 255 47 0
0.0607457 -0.19517 -0.975 255 51 0
0.0621732 -0.194369 -0.971 255 51 0
0.0638201 -0.194279 -0.97 255 56 0
0.0655636 -0.194479 -0.971 255 60 0
0.067172 -0.194279 -0.97 255 71 0
0.068493 -0.193277 -0.965 255 78 0
0.0700149 -0.192876 -0.963 255 78 0
0.0715299 -0.192476 -0.961 255 90 0
0.0732665 -0.192676 -0.962 255 96 0
0.0750389 -0.19296 -0.963 255 96 0
0.0766238 -0.192759 -0.962 255 96 0
0.0780425 -0.192158 -0.959 255 96 0
0.0794508 -0.191557 -0.956 255 107 0
0.0811033 -0.191557 -0.956 255 115 0
0.0827558 -0.191557 -0.956 255 115 0
0.08432 -0.191357 -0.955 255 115 0
0.085841 -0.191068 -0.953 255 115 0
0.0873975 -0.190868 -0.952 255 120 0
0.0889505 -0.190667 -0.951 255 120 0
0.090119 -0.189665 -0.946 255 124 0
0.0915611 -0.189264 -0.944 255 124 0
0.0932357 -0.189349 -0.944 255 128 0
0.0948691 -0.189349 -0.944 255 124 0
0.0958892 -0.188145 -0.938 255 128 0
0.0977201 -0.188546 -0.94 255 137 0
0.0991352 -0.188145 -0.938 255 158 0
0.100282 -0.187257 -0.933 255 158 0
0.101898 -0.187257 -0.933 255 158 0
0.103402 -0.187056 -0.932 255 153 0
0.104903 -0.186855 -0.931 255 147 0
0.106286 -0.186454 -0.929 255 147 0
0.107713 -0.18614 -0.927 255 158 0
0.109319 -0.18614 -0.927 255 158 0
0.110446 -0.185336 -0.923 255 162 0
0.111802 -0.184935 -0.921 255 162 0
0.113274 -0.184734 -0.92 255 168 0
0.114672 -0.18442 -0.918 255 180 0
0.11639 -0.184621 -0.919 255 189 0
0.118239 -0.185023 -0.921 255 193 0
0.119835 -0.185023 -0.921 255 189 0
0.121358 -0.184911 -0.92 255 185 0
0.123354 -0.185514 -0.923 255 185 0
0.125225 -0.185916 -0.925 255 189 0
0.126829 -0.185916 -0.925 255 193 0
0.128496 -0.186007 -0.925 255 207 0
0.130523 -0.186611 -0.928 255 198 0
0.13256 -0.187214 -0.931 255 185 0
0.133886 -0.186812 -0.929 255 180 0
0.135734 -0.187137 -0.93 255 153 0
0.137201 -0.186936 -0.929 255 47 0
0.139411 -0.187741 -0.933 218 0 0
0.141859 -0.188843 -0.938 0 0 0
0.144406 -0.190051 -0.944 0 0 0
0.149758 -0.194883 -0.968 0 0 0
0.152221 -0.19589 -0.973 0 0 0
0.155732 -0.198207 -0.984 0 0 0
0.158882 -0.20002 -0.993 0 0 0
0.161416 -0.201027 -0.998 0 0 0
0.163399 -0.201334 -0.999 0 0 0
0.165632 -0.201938 -1.002 0 0 0
0.171383 -0.206775 -1.026 0 0 0
0.175929 -0.210074 -1.042 0 0 0
-0.0281961 -0.220961 -1.095 171 0 0
-0.0261621 -0.21975 -1.089 174 0 0
-0.0241489 -0.21854 -1.083 178 0 0
-0.0221563 -0.217329 -1.077 178 0 0
-0.0201657 -0.215916 -1.07 184 0 0
-0.0183019 -0.215714 -1.069 182 0 0
-0.0164261 -0.215311 -1.067 182 0 0
-0.0145573 -0.214907 -1.065 190 0 0
-0.0126596 -0.213898 -1.06 196 0 0
-0.0107893 -0.213091 -1.056 196 0 0
-0.00895828 -0.212889 -1.055 193 0 0
-0.0071172 -0.212284 -1.052 196 0 0
-0.00529655 -0.212082 -1.051 201 0 0
-0.00347605 -0.211679 -1.049 206 0 0
-0.00165927 -0.210872 -1.045 218 0 0
0.000143706 -0.210064 -1.041 218 0 0
0.00192728 -0.208652 -1.034 218 0 0
0.003719 -0.209055 -1.036 222 0 0
0.00548573 -0.208248 -1.032 225 0 0
0.00725273 -0.207845 -1.03 232 0 0
0.00901283 -0.207441 -1.028 235 0 0
0.0107136 -0.206029 -1.021 235 0 0
0.0124757 -0.206029 -1.021 232 0 0
0.0142517 -0.20623 -1.022 240 0 0
0.0159685 -0.205625 -1.019 235 0 0
0.0177272 -0.205625 -1.019 232 0 0
0.0193902 -0.204616 -1.014 232 0 0
0.021036 -0.203607 -1.009 235 0 0
0.0227774 -0.203607 -1.009 244 0 0
0.0245431 -0.203809 -1.01 248 0 0
0.0261561 -0.2028 -1.005 248 0 0
0.0278628 -0.202598 -1.004 248 0 0
0.0295956 -0.202598 -1.004 248 0 0
0.0312347 -0.201993 -1.001 248 0 0
0.0329294 -0.201791 -1 248 0 0
0.0346899 -0.201993 -1.001 244 0 0
0.0363447 -0.201589 -0.999 248 0 0
0.0380308 -0.201387 -0.998 254 0 0
0.0397352 -0.201296 -0.997 254 0 0
0.0414152 -0.201094 -0.996 255 5 0
0.0430485 -0.20069 -0.994 255 5 0
0.0447199 -0.200488 -0.993 255 5 0
0.0464346 -0.200488 -0.993 255 5 0
0.0481009 -0.200287 -0.992 255 21 0
0.0496632 -0.199681 -0.989 255 13 0
0.051371 -0.199681 -0.989 255 21 0
0.0529178 -0.199075 -0.986 255 27 0
0.0546759 -0.199277 -0.987 255 34 0
0.056266 -0.198873 -0.985 255 40 0
0.0574696 -0.197167 -0.976 255 56 0
0.0589741 -0.196561 -0.973 255 56 0
0.0606552 -0.196561 -0.973 255 56 0
0.0621441 -0.195955 -0.97 255 56 0
0.0638201 -0.195955 -0.97 255 65 0
0.065496 -0.195955 -0.97 255 90 0
0.0671027 -0.195753 -0.969 255 90 0
0.068493 -0.194945 -0.965 255 96 0
0.0699724 -0.194423 -0.962 255 96 0
0.0714863 -0.194019 -0.96 255 96 0
0.0731457 -0.194019 -0.96 255 96 0
0.0746493 -0.193614 -0.958 255 107 0
0.0762255 -0.193412 -0.957 255 111 0
0.077717 -0.193008 -0.955 255 111 0
0.0794508 -0.19321 -0.956 255 111 0
0.081066 -0.193121 -0.955 255 115 0
0.0822847 -0.19211 -0.95 255 115 0
0.0838394 -0.191908 -0.949 255 115 0
0.0853907 -0.191706 -0.948 255 124 0
0.0871221 -0.191908 -0.949 255 128 0
0.0882957 -0.190897 -0.944 255 128 0
0.0896829 -0.190376 -0.941 255 128 0
0.0912141 -0.190174 -0.94 255 128 0
0.0928406 -0.190174 -0.94 255 128 0
0.0942661 -0.189769 -0.938 255 137 0
0.0959914 -0.189971 -0.939 255 142 0
0.0973043 -0.189364 -0.936 255 158 0
0.0986671 -0.188873 -0.933 255 162 0
0.100175 -0.18867 -0.932 255 153 0
0.101679 -0.188468 -0.931 255 153 0
0.103291 -0.188468 -0.931 255 158 0
0.10484 -0.188353 -0.93 255 158 0
0.106679 -0.188758 -0.932 255 158 0
0.10748 -0.187341 -0.925 255 172 0
0.108729 -0.186733 -0.922 255 172 0
0.110206 -0.186531 -0.921 255 165 0
0.111369 -0.185809 -0.917 255 162 0
0.113081 -0.186011 -0.918 255 172 0
0.114422 -0.185606 -0.916 255 189 0
0.11639 -0.186214 -0.919 255 193 0
0.117783 -0.185899 -0.917 255 193 0
0.119633 -0.186304 -0.919 255 198 0
0.121358 -0.186507 -0.92 255 193 0
0.123488 -0.187318 -0.924 255 185 0
0.125016 -0.187207 -0.923 255 185 0
0.126754 -0.18741 -0.924 255 202 0
0.128774 -0.188018 -0.927 255 207 0
0.130804 -0.188627 -0.93 255 193 0
0.132363 -0.188549 -0.929 255 207 0
0.133976 -0.188549 -0.929 255 207 0
0.135734 -0.188752 -0.93 255 124 0
0.137644 -0.189158 -0.932 255 27 0
0.139781 -0.189864 -0.935 0 0 0
0.146853 -0.19494 -0.96 0 0 0
0.150532 -0.19758 -0.973 0 0 0
0.153239 -0.198901 -0.979 0 0 0
0.156998 -0.201543 -0.992 0 0 0
0.159202 -0.202152 -0.995 0 0 0
0.161339 -0.202665 -0.997 0 0 0
0.163236 -0.202868 -0.998 0 0 0
0.167285 -0.205714 -1.012 0 0 0
0.172947 -0.210464 -1.035 0 0 0
-0.0326766 -0.227736 -1.119 180 0 0
-0.0303607 -0.224887 -1.105 180 0 0
-0.0281703 -0.222648 -1.094 180 0 0
-0.025994 -0.220206 -1.082 178 0 0
-0.0239928 -0.218985 -1.076 180 0 0
-0.0220123 -0.217764 -1.07 184 0 0
-0.0200714 -0.216746 -1.065 190 0 0
-0.0181992 -0.216339 -1.063 190 0 0
-0.0162876 -0.215321 -1.058 187 0 0
-0.0144206 -0.214711 -1.055 190 0 0
-0.0125879 -0.214507 -1.054 190 0 0
-0.0107178 -0.21349 -1.049 199 0 0
-0.00889884 -0.213286 -1.048 199 0 0
-0.00709013 -0.213286 -1.048 204 0 0
-0.0052512 -0.212065 -1.042 206 0 0
-0.00344291 -0.211455 -1.039 209 0 0
-0.00164656 -0.211048 -1.037 213 0 0
0.000142463 -0.21003 -1.032 218 0 0
0.00191796 -0.209419 -1.029 222 0 0
0.00370105 -0.209826 -1.031 225 0 0
0.00546978 -0.209419 -1.029 232 0 0
0.00722457 -0.208809 -1.026 235 0 0
0.00895146 -0.207791 -1.021 235 0 0
0.0107136 -0.207791 -1.021 244 0 0
0.012439 -0.207181 -1.018 240 0 0
0.0141959 -0.207181 -1.018 240 0 0
0.0159685 -0.207384 -1.019 235 0 0
0.0176576 -0.20657 -1.015 235 0 0
0.0193137 -0.205553 -1.01 235 0 0
0.021036 -0.205349 -1.009 240 0 0
0.0228 -0.205553 -1.01 244 0 0
0.0244945 -0.205146 -1.008 254 0 0
0.026104 -0.204128 -1.003 248 0 0
0.0278628 -0.204331 -1.004 248 0 0
0.0295661 -0.204128 -1.003 254 0 0
0.0312207 -0.203629 -1 254 0 0
0.0328486 -0.203018 -0.997 248 0 0
0.0346049 -0.203222 -0.998 248 0 0
0.0362919 -0.203018 -0.997 248 0 0
0.0380135 -0.203018 -0.997 248 0 0
0.0396953 -0.202815 -0.996 248 0 0
0.0413736 -0.202611 -0.995 255 5 0
0.0430485 -0.202407 -0.994 255 5 0
0.0446749 -0.202 -0.992 255 13 0
0.0462476 -0.201389 -0.989 255 21 0
0.0479554 -0.201389 -0.989 255 21 0
0.0495628 -0.200982 -0.987 255 13 0
0.0512671 -0.200982 -0.987 255 27 0
0.0530013 -0.201095 -0.987 255 40 0
0.0543187 -0.199669 -0.98 255 51 0
0.0558976 -0.199262 -0.978 255 56 0
0.0574107 -0.19865 -0.975 255 56 0
0.0589741 -0.198243 -0.973 255 65 0
0.0604682 -0.197632 -0.97 255 65 0
0.0620801 -0.197428 -0.969 255 78 0
0.0637543 -0.197428 -0.969 255 78 0
0.0654285 -0.197428 -0.969 255 90 0
0.0670624 -0.197309 -0.968 255 96 0
0.0683806 -0.19629 -0.963 255 96 0
0.0698269 -0.195679 -0.96 255 101 0
0.0714119 -0.195475 -0.959 255 101 0
0.0728409 -0.194863 -0.956 255 107 0
0.0744155 -0.194659 -0.955 255 111 0
0.0760662 -0.194659 -0.955 255 115 0
0.0777626 -0.194774 -0.955 255 115 0
0.0794143 -0.194774 -0.955 255 115 0
0.0806416 -0.193754 -0.95 255 124 0
0.0821114 -0.193346 -0.948 255 124 0
0.0835744 -0.192938 -0.946 255 124 0
0.0851204 -0.192734 -0.945 255 128 0
0.086702 -0.192617 -0.944 255 128 0
0.0881483 -0.192209 -0.942 255 128 0
0.0895876 -0.191801 -0.94 255 128 0
0.0911171 -0.191597 -0.939 255 128 0
0.0926431 -0.191393 -0.938 255 137 0
0.0943666 -0.191597 -0.939 255 153 0
0.0956409 -0.190897 -0.935 255 153 0
0.0968437 -0.19008 -0.931 255 158 0
0.0983498 -0.189876 -0.93 255 162 0
0.0998525 -0.189672 -0.929 255 158 0
0.101243 -0.189264 -0.927 255 162 0
0.102674 -0.188944 -0.925 255 165 0
0.104389 -0.189148 -0.926 255 168 0
0.105878 -0.188944 -0.925 255 172 0
0.107132 -0.188331 -0.922 255 176 0
0.108545 -0.188012 -0.92 255 176 0
0.10978 -0.187399 -0.917 255 176 0
0.111369 -0.187399 -0.917 255 172 0
0.112958 -0.187399 -0.917 255 176 0
0.114797 -0.187807 -0.919 255 189 0
0.116193 -0.187489 -0.917 255 189 0
0.118039 -0.187898 -0.919 255 198 0
0.119763 -0.188102 -0.92 255 198 0
0.121886 -0.18892 -0.924 255 193 0
0.123415 -0.188809 -0.923 255 198 0
0.125016 -0.188809 -0.923 255 212 0
0.127303 -0.189831 -0.928 255 198 0
0.129191 -0.19024 -0.93 255 207 0
0.131032 -0.190572 -0.931 255 232 0
0.132363 -0.190163 -0.929 255 198 0
0.134264 -0.190572 -0.931 255 180 0
0.136318 -0.191186 -0.934 255 137 0
0.138453 -0.191898 -0.937 255 96 0
0.140977 -0.193127 -0.943 0 0 0
0.143522 -0.194355 -0.949 0 0 0
0.146929 -0.19671 -0.96 0 0 0
0.150919 -0.199784 -0.975 0 0 0
0.154492 -0.202242 -0.987 0 0 0
0.156998 -0.203267 -0.992 0 0 0
0.159605 -0.204399 -0.997 0 0 0
0.161177 -0.204194 -0.996 0 0 0
0.164217 -0.205834 -1.004 0 0 0
0.168998 -0.209598 -1.022 0 0 0
0.174284 -0.213905 -1.043 0 0 0
-0.0346268 -0.229794 -1.119 180 0 0
-0.0321394 -0.225892 -1.1 182 0 0
-0.0300475 -0.224455 -1.093 182 0 0
-0.0279282 -0.222607 -1.084 184 0 0
-0.0257679 -0.220142 -1.072 187 0 0
-0.0238498 -0.219526 -1.069 190 0 0
-0.0218803 -0.218294 -1.063 196 0 0
-0.019875 -0.216446 -1.054 196 0 0
-0.0180207 -0.216035 -1.052 196 0 0
-0.0161887 -0.21583 -1.051 193 0 0
-0.0143602 -0.215624 -1.05 190 0 0
-0.0125162 -0.215096 -1.048 190 0 0
-0.0106871 -0.214685 -1.046 199 0 0
-0.00886487 -0.214275 -1.044 204 0 0
-0.00704954 -0.213864 -1.042 204 0 0
-0.00523104 -0.213043 -1.038 201 0 0
-0.00342303 -0.212017 -1.033 206 0 0
-0.00163862 -0.211812 -1.032 218 0 0
0.000142463 -0.211812 -1.032 218 0 0
0.0019161 -0.210991 -1.028 222 0 0
0.00368669 -0.210785 -1.027 225 0 0
0.00543257 -0.209759 -1.022 232 0 0
0.00718936 -0.209554 -1.021 235 0 0
0.00893393 -0.209144 -1.019 240 0 0
0.0106926 -0.209144 -1.019 244 0 0
0.012439 -0.208938 -1.018 240 0 0
0.0142037 -0.209053 -1.018 235 0 0
0.0159459 -0.208848 -1.017 235 0 0
0.0175803 -0.20741 -1.01 235 0 0
0.0193052 -0.207205 -1.009 240 0 0
0.0211727 -0.208437 -1.015 240 0 0
0.0227899 -0.207205 -1.009 244 0 0
0.0244836 -0.206794 -1.007 248 0 0
0.0260923 -0.205767 -1.002 254 0 0
0.0278504 -0.205973 -1.003 254 0 0
0.0295234 -0.205562 -1.001 254 0 0
0.031127 -0.204741 -0.997 254 0 0
0.0328486 -0.204741 -0.997 254 0 0
0.0345703 -0.204741 -0.997 254 0 0
0.0362919 -0.204741 -0.997 254 0 0
0.0379754 -0.204535 -0.996 255 13 0
0.0396156 -0.204124 -0.994 255 13 0
0.041332 -0.204124 -0.994 255 5 0
0.0430052 -0.203919 -0.993 255 13 0
0.044655 -0.203623 -0.991 255 13 0
0.0462736 -0.203212 -0.989 255 21 0
0.0478854 -0.202801 -0.987 255 27 0
0.0494902 -0.20239 -0.985 255 34 0
0.0509322 -0.201363 -0.98 255 34 0
0.052518 -0.200952 -0.978 255 47 0
0.0541524 -0.200746 -0.977 255 60 0
0.0557833 -0.200541 -0.976 255 56 0
0.0572929 -0.199925 -0.973 255 51 0
0.0588528 -0.199514 -0.971 255 60 0
0.0604943 -0.199394 -0.97 255 71 0
0.0620428 -0.198983 -0.968 255 90 0
0.0635843 -0.198572 -0.966 255 90 0
0.0651865 -0.198366 -0.965 255 101 0
0.066716 -0.197955 -0.963 255 101 0
0.0682386 -0.197544 -0.961 255 107 0
0.0697542 -0.197133 -0.959 255 101 0
0.0712629 -0.196722 -0.957 255 101 0
0.0728075 -0.196426 -0.955 255 111 0
0.0744592 -0.196426 -0.955 255 115 0
0.0759515 -0.196015 -0.953 255 120 0
0.0775183 -0.195809 -0.952 255 120 0
0.0789154 -0.195192 -0.949 255 120 0
0.0804718 -0.194986 -0.948 255 128 0
0.0819382 -0.194575 -0.946 255 128 0
0.0834352 -0.194251 -0.944 255 128 0
0.0850686 -0.194251 -0.944 255 133 0
0.0866102 -0.194045 -0.943 255 133 0
0.0880547 -0.193633 -0.941 255 133 0
0.089397 -0.193016 -0.938 255 133 0
0.0911728 -0.19334 -0.939 255 147 0
0.0927985 -0.19334 -0.939 255 153 0
0.0940221 -0.192516 -0.935 255 147 0
0.0950272 -0.191281 -0.929 255 153 0
0.0967396 -0.191487 -0.93 255 153 0
0.0981383 -0.191075 -0.928 255 158 0
0.0995766 -0.190752 -0.926 255 162 0
0.101071 -0.190546 -0.925 255 168 0
0.102674 -0.190546 -0.925 255 168 0
0.10405 -0.190134 -0.923 255 176 0
0.105649 -0.190134 -0.923 255 172 0
0.106834 -0.1894 -0.919 255 176 0
0.108191 -0.188988 -0.917 255 180 0
0.10954 -0.188576 -0.915 255 180 0
0.111369 -0.188988 -0.917 255 176 0
0.113259 -0.189492 -0.919 255 176 0
0.114728 -0.189286 -0.918 255 185 0
0.116319 -0.189286 -0.918 255 193 0
0.117911 -0.189286 -0.918 255 198 0
0.120082 -0.190204 -0.922 255 202 0
0.12155 -0.189998 -0.921 255 207 0
0.123281 -0.190204 -0.922 255 212 0
0.125693 -0.191442 -0.928 255 218 0
0.127937 -0.192395 -0.932 255 218 0
0.129138 -0.191776 -0.929 255 212 0
0.13061 -0.191569 -0.928 255 189 0
0.132363 -0.191776 -0.929 255 246 0
0.133755 -0.19146 -0.927 255 223 0
0.136825 -0.193526 -0.937 255 96 0
0.138896 -0.194145 -0.94 255 96 0
0.14023 -0.193732 -0.938 0 0 0
0.146018 -0.199412 -0.965 0 0 0
0.149072 -0.201272 -0.974 0 0 0
0.152003 -0.202925 -0.982 0 0 0
0.155512 -0.205306 -0.993 0 0 0
0.157872 -0.206133 -0.997 0 0 0
0.159765 -0.206339 -0.998 0 0 0
0.162957 -0.2082 -1.007 0 0 0
0.166402 -0.210342 -1.017 0 0 0
0.170982 -0.213858 -1.034 0 0 0
-0.0340079 -0.227585 -1.099 182 0 0
-0.0320517 -0.227171 -1.097 184 0 0
-0.0297451 -0.224065 -1.082 187 0 0
-0.0276705 -0.222408 -1.074 190 0 0
-0.0255035 -0.219716 -1.061 193 0 0
-0.0235598 -0.218681 -1.056 196 0 0
-0.0217157 -0.218474 -1.055 196 0 0
-0.0198939 -0.218474 -1.055 196 0 0
-0.0180207 -0.217852 -1.052 199 0 0
-0.0161425 -0.217024 -1.048 204 0 0
-0.0143191 -0.216817 -1.047 206 0 0
-0.0124753 -0.216196 -1.044 204 0 0
-0.0106316 -0.215367 -1.04 206 0 0
-0.00881877 -0.214953 -1.038 209 0 0
-0.0070128 -0.214539 -1.036 213 0 0
-0.00521879 -0.214332 -1.035 209 0 0
-0.00342491 -0.213918 -1.033 213 0 0
-0.00163952 -0.213711 -1.032 225 0 0
0.000142265 -0.213297 -1.03 229 0 0
0.00191715 -0.212882 -1.028 232 0 0
0.00366717 -0.211433 -1.021 232 0 0
0.00543024 -0.211433 -1.021 232 0 0
0.00717217 -0.210812 -1.018 240 0 0
0.00893006 -0.210812 -1.018 254 0 0
0.0106985 -0.211019 -1.019 254 0 0
0.0124336 -0.210604 -1.017 248 0 0
0.0141758 -0.210397 -1.016 240 0 0
0.0158676 -0.209569 -1.012 244 0 0
0.0175629 -0.208948 -1.009 240 0 0
0.0193626 -0.209569 -1.012 244 0 0
0.0210267 -0.208741 -1.008 244 0 0
0.0227899 -0.208948 -1.009 244 0 0
0.024435 -0.208119 -1.005 248 0 0
0.0260663 -0.207291 -1.001 248 0 0
0.0278226 -0.207498 -1.002 254 0 0
0.0294644 -0.206877 -0.999 255 5 0
0.031127 -0.206463 -0.997 255 5 0
0.0328157 -0.206256 -0.996 255 13 0
0.0345009 -0.206049 -0.995 255 5 0
0.0362395 -0.206165 -0.995 255 5 0
0.0379586 -0.206165 -0.995 255 21 0
0.0396379 -0.205958 -0.994 255 13 0
0.0413137 -0.20575 -0.993 255 21 0
0.0429427 -0.205336 -0.991 255 21 0
0.0445649 -0.204922 -0.989 255 21 0
0.0462268 -0.204714 -0.988 255 27 0
0.0478369 -0.2043 -0.986 255 40 0
0.04944 -0.203886 -0.984 255 47 0
0.0508802 -0.202849 -0.979 255 40 0
0.0525717 -0.202849 -0.979 255 47 0
0.0539861 -0.201813 -0.974 255 56 0
0.0556358 -0.201693 -0.973 255 51 0
0.0572588 -0.201486 -0.972 255 47 0
0.0586357 -0.20045 -0.967 255 60 0
0.0601825 -0.200035 -0.965 255 78 0
0.0617864 -0.199828 -0.964 255 96 0
0.0634527 -0.199828 -0.964 255 96 0
0.0649839 -0.199413 -0.962 255 107 0
0.0665774 -0.199206 -0.961 255 107 0
0.0681365 -0.198908 -0.959 255 101 0
0.0696496 -0.198493 -0.957 255 101 0
0.0710813 -0.197871 -0.954 255 111 0
0.072655 -0.197664 -0.953 255 111 0
0.0743812 -0.197871 -0.954 255 115 0
0.0760312 -0.197871 -0.954 255 120 0
0.0775183 -0.197456 -0.952 255 120 0
0.0787845 -0.196507 -0.947 255 124 0
0.0802532 -0.196092 -0.945 255 133 0
0.0818017 -0.195885 -0.944 255 137 0
0.0832584 -0.19547 -0.942 255 142 0
0.0848883 -0.19547 -0.942 255 137 0
0.0864265 -0.195262 -0.941 255 137 0
0.0880149 -0.195174 -0.94 255 137 0
0.0894516 -0.194759 -0.938 255 137 0
0.0910757 -0.194759 -0.938 255 153 0
0.0925021 -0.194343 -0.936 255 153 0
0.093821 -0.193721 -0.933 255 153 0
0.0950272 -0.19289 -0.929 255 158 0
0.0966808 -0.19298 -0.929 255 162 0
0.0981842 -0.192773 -0.928 255 162 0
0.0994691 -0.192149 -0.925 255 165 0
0.100962 -0.191942 -0.924 255 172 0
0.102452 -0.191734 -0.923 255 172 0
0.1041 -0.191825 -0.923 255 176 0
0.105241 -0.190994 -0.919 255 176 0
0.106485 -0.19037 -0.916 255 180 0
0.107837 -0.189955 -0.914 255 180 0
0.109474 -0.190046 -0.914 255 185 0
0.111301 -0.190462 -0.916 255 185 0
