ply
format ascii 1.0
element vertex 1306
property float32 x
property float32 y
property float32 z
property uchar diffuse_red
property uchar diffuse_green
property uchar diffuse_blue
end_header
0.113547 -0.139251 -1.081 133 0 0
0.115833 -0.139767 -1.085 131 0 0
0.117916 -0.140024 -1.087 131 0 0
0.119565 -0.139767 -1.085 131 0 0
0.122214 -0.140668 -1.092 131 0 0
0.124958 -0.14165 -1.099 127 0 0
-0.0995478 -0.145539 -1.116 127 0 0
-0.0959683 -0.143061 -1.097 127 0 0
-0.0934832 -0.142148 -1.09 131 0 0
-0.0910222 -0.141236 -1.083 131 0 0
-0.0890793 -0.141105 -1.082 132 0 0
-0.0866927 -0.140251 -1.076 135 0 0
-0.084293 -0.139339 -1.069 138 0 0
-0.082226 -0.138948 -1.066 139 0 0
-0.079943 -0.138166 -1.06 143 0 0
-0.0775332 -0.137123 -1.052 148 0 0
-0.0750069 -0.13582 -1.042 155 0 0
-0.0721636 -0.133865 -1.027 175 0 0
-0.0702288 -0.133539 -1.025 177 0 0
-0.0680687 -0.132757 -1.019 188 0 0
-0.0659944 -0.132106 -1.014 196 0 0
-0.064254 -0.132106 -1.014 196 0 0
-0.0623904 -0.131845 -1.012 200 0 0
-0.0604137 -0.131324 -1.008 213 0 0
-0.0585672 -0.131063 -1.006 217 0 0
-0.0568406 -0.131063 -1.006 217 0 0
-0.0546452 -0.129949 -0.998 249 0 0
-0.0526681 -0.129298 -0.993 255 15 0
-0.0509647 -0.129298 -0.993 255 15 0
-0.0490133 -0.128647 -0.988 255 42 0
-0.0469354 -0.127605 -0.98 255 84 0
-0.0450234 -0.126954 -0.975 255 109 0
-0.0433954 -0.127084 -0.976 255 104 0
-0.0418067 -0.127345 -0.978 255 93 0
-0.0401291 -0.127345 -0.978 255 93 0
-0.0384907 -0.127475 -0.979 255 88 0
-0.0368114 -0.127475 -0.979 255 88 0
-0.0350603 -0.127214 -0.977 255 99 0
-0.0333696 -0.127158 -0.977 255 99 0
-0.031662 -0.127028 -0.976 255 104 0
-0.0299885 -0.127028 -0.976 255 104 0
-0.0283441 -0.127158 -0.977 255 99 0
-0.026587 -0.126768 -0.974 255 114 0
-0.024917 -0.126768 -0.974 255 114 0
-0.0232708 -0.126898 -0.975 255 109 0
-0.0216212 -0.127028 -0.976 255 104 0
-0.0199273 -0.126898 -0.975 255 109 0
-0.0182556 -0.126898 -0.975 255 109 0
-0.0165498 -0.126638 -0.973 255 118 0
-0.0148968 -0.126768 -0.974 255 114 0
-0.0132131 -0.126638 -0.973 255 118 0
-0.0115329 -0.126508 -0.972 255 122 0
-0.00987649 -0.126638 -0.973 255 118 0
-0.00820817 -0.126638 -0.973 255 118 0
-0.0065264 -0.126377 -0.971 255 127 0
-0.0048565 -0.126247 -0.97 255 131 0
-0.00319333 -0.126247 -0.97 255 131 0
-0.00153015 -0.126247 -0.97 255 131 0
0.000133032 -0.126247 -0.97 255 131 0
0.00179621 -0.126247 -0.97 255 131 0
0.00346652 -0.126508 -0.972 255 122 0
0.00513313 -0.126508 -0.972 255 122 0
0.00679974 -0.126508 -0.972 255 122 0
0.00846635 -0.126508 -0.972 255 122 0
0.010133 -0.126508 -0.972 255 122 0
0.0117996 -0.126508 -0.972 255 122 0
0.01348 -0.126638 -0.973 255 118 0
0.0151951 -0.127028 -0.976 255 104 0
0.0168858 -0.127158 -0.977 255 99 0
0.018599 -0.127419 -0.979 255 88 0
0.0202983 -0.127549 -0.98 255 84 0
0.0219786 -0.127549 -0.98 255 84 0
0.0237072 -0.127809 -0.982 255 75 0
0.0254168 -0.127939 -0.983 255 70 0
0.0271023 -0.127939 -0.983 255 70 0
0.0287878 -0.127939 -0.983 255 70 0
0.0305662 -0.12833 -0.986 255 54 0
0.0323223 -0.12859 -0.988 255 42 0
0.0340508 -0.12872 -0.989 255 35 0
0.0357623 -0.128777 -0.989 255 35 0
0.0375345 -0.129037 -0.991 255 24 0
0.0392741 -0.129168 -0.992 255 20 0
0.0409757 -0.129168 -0.992 255 20 0
0.0427204 -0.129298 -0.993 255 15 0
0.0444238 -0.129298 -0.993 255 15 0
0.0461736 -0.129428 -0.994 255 11 0
0.0479268 -0.129558 -0.995 255 7 0
0.0496835 -0.129688 -0.996 255 2 0
0.0514952 -0.129949 -0.998 249 0 0
0.0532072 -0.129949 -0.998 249 0 0
0.0550048 -0.130151 -0.999 244 0 0
0.0567194 -0.130151 -0.999 244 0 0
0.0586094 -0.130542 -1.002 229 0 0
0.0608109 -0.131585 -1.01 207 0 0
0.0633494 -0.133278 -1.023 180 0 0
0.0659962 -0.135102 -1.037 162 0 0
0.0682989 -0.136144 -1.045 155 0 0
0.0704278 -0.136796 -1.05 150 0 0
0.0720924 -0.136535 -1.048 152 0 0
0.0741387 -0.136993 -1.051 149 0 0
0.076377 -0.137775 -1.057 147 0 0
0.0780441 -0.137514 -1.055 147 0 0
0.0799314 -0.137645 -1.056 147 0 0
0.0818995 -0.137905 -1.058 146 0 0
0.0839537 -0.138296 -1.061 142 0 0
0.0858564 -0.138427 -1.062 141 0 0
0.0877246 -0.138497 -1.062 141 0 0
0.0896335 -0.138627 -1.063 140 0 0
0.0915458 -0.138758 -1.064 139 0 0
0.0934615 -0.138888 -1.065 139 0 0
0.0955596 -0.139279 -1.068 139 0 0
0.0973945 -0.139279 -1.068 139 0 0
0.0993748 -0.139483 -1.069 138 0 0
0.101402 -0.139744 -1.071 136 0 0
0.103435 -0.140005 -1.073 135 0 0
0.105476 -0.140266 -1.075 135 0 0
0.107224 -0.140136 -1.074 135 0 0
0.109172 -0.140266 -1.075 135 0 0
0.111172 -0.140458 -1.076 135 0 0
0.113232 -0.140719 -1.078 135 0 0
0.115406 -0.141111 -1.081 133 0 0
0.117265 -0.141111 -1.081 133 0 0
0.119455 -0.141503 -1.084 131 0 0
0.121612 -0.141844 -1.086 131 0 0
0.124049 -0.142497 -1.091 131 0 0
0.128235 -0.145109 -1.111 127 0 0
-0.100791 -0.146477 -1.108 127 0 0
-0.0975853 -0.14455 -1.094 131 0 0
-0.0952684 -0.14389 -1.089 131 0 0
-0.0928829 -0.143097 -1.083 131 0 0
-0.0905179 -0.142304 -1.077 135 0 0
-0.0883383 -0.141776 -1.073 135 0 0
-0.0861724 -0.141247 -1.069 138 0 0
-0.0842142 -0.141043 -1.068 139 0 0
-0.0823802 -0.141043 -1.068 139 0 0
-0.079943 -0.139987 -1.06 143 0 0
-0.0769436 -0.137874 -1.044 155 0 0
-0.0750789 -0.137742 -1.043 155 0 0
-0.0726555 -0.136553 -1.034 168 0 0
-0.0699202 -0.134704 -1.02 187 0 0
-0.0677677 -0.133912 -1.014 196 0 0
-0.0661896 -0.134243 -1.017 190 0 0
-0.064254 -0.133847 -1.014 196 0 0
-0.0625137 -0.133847 -1.014 196 0 0
-0.0604137 -0.133055 -1.008 213 0 0
-0.0586836 -0.133055 -1.008 213 0 0
-0.0566711 -0.132395 -1.003 226 0 0
-0.0546757 -0.131735 -0.998 249 0 0
-0.0527505 -0.131207 -0.994 255 11 0
-0.0509931 -0.131075 -0.993 255 15 0
-0.0490133 -0.130342 -0.988 255 42 0
-0.0469833 -0.129419 -0.981 255 79 0
-0.0450696 -0.128759 -0.976 255 104 0
-0.0434399 -0.128891 -0.977 255 99 0
-0.0417639 -0.128891 -0.977 255 99 0
-0.040047 -0.128759 -0.976 255 104 0
-0.0384907 -0.129155 -0.979 255 88 0
-0.0368114 -0.129155 -0.979 255 88 0
-0.035132 -0.129155 -0.979 255 88 0
-0.0334185 -0.129023 -0.978 255 93 0
-0.0317084 -0.128891 -0.977 255 99 0
-0.0300325 -0.128891 -0.977 255 99 0
-0.0283566 -0.128891 -0.977 255 99 0
-0.0266143 -0.12857 -0.975 255 109 0
-0.0249426 -0.12857 -0.975 255 109 0
-0.0232708 -0.12857 -0.975 255 109 0
-0.0216212 -0.128702 -0.976 255 104 0
-0.0199477 -0.128702 -0.976 255 104 0
-0.0182556 -0.12857 -0.975 255 109 0
-0.0165838 -0.12857 -0.975 255 109 0
-0.0148968 -0.128438 -0.974 255 114 0
-0.0132267 -0.128438 -0.974 255 114 0
-0.0115685 -0.12857 -0.975 255 109 0
-0.00989679 -0.12857 -0.975 255 109 0
-0.0082166 -0.128438 -0.974 255 114 0
-0.00653312 -0.128175 -0.972 255 122 0
-0.00486652 -0.128175 -0.972 255 122 0
-0.0032032 -0.128307 -0.973 255 118 0
-0.0015333 -0.128175 -0.972 255 122 0
0.000133169 -0.128043 -0.971 255 127 0
0.00179806 -0.128043 -0.971 255 127 0
0.00346296 -0.128043 -0.971 255 127 0
0.00513313 -0.128175 -0.972 255 122 0
0.00679974 -0.128175 -0.972 255 122 0
0.00846635 -0.128175 -0.972 255 122 0
0.010133 -0.128175 -0.972 255 122 0
0.0117996 -0.128175 -0.972 255 122 0
0.0134939 -0.128438 -0.974 255 114 0
0.0152262 -0.128966 -0.978 255 93 0
0.0169204 -0.129098 -0.979 255 88 0
0.018618 -0.12923 -0.98 255 84 0
0.0202983 -0.12923 -0.98 255 84 0
0.0219786 -0.12923 -0.98 255 84 0
0.0237314 -0.129625 -0.983 255 70 0
0.0254427 -0.129757 -0.984 255 65 0
0.0271575 -0.129889 -0.985 255 60 0
0.0288884 -0.130078 -0.986 255 54 0
0.0305797 -0.130078 -0.986 255 54 0
0.0323366 -0.130342 -0.988 255 42 0
0.0341002 -0.130606 -0.99 255 29 0
0.0358346 -0.130738 -0.991 255 24 0
0.0374967 -0.130606 -0.99 255 29 0
0.0392345 -0.130738 -0.991 255 24 0
0.0409757 -0.13087 -0.992 255 20 0
0.0427204 -0.131002 -0.993 255 15 0
0.0444685 -0.131134 -0.994 255 11 0
0.0462665 -0.131398 -0.996 255 2 0
0.0480232 -0.131529 -0.997 254 0 0
0.0497334 -0.131529 -0.997 254 0 0
0.0515239 -0.131735 -0.998 249 0 0
0.0532368 -0.131735 -0.998 249 0 0
0.0549497 -0.131735 -0.998 249 0 0
0.0566626 -0.131735 -0.998 249 0 0
0.0586094 -0.132263 -1.002 229 0 0
0.0606905 -0.133055 -1.008 213 0 0
0.0632256 -0.134771 -1.021 184 0 0
0.0658053 -0.136487 -1.034 168 0 0
0.0679067 -0.137147 -1.039 158 0 0
0.0701266 -0.138006 -1.045 155 0 0
0.0724716 -0.139062 -1.053 147 0 0
0.0740682 -0.138666 -1.05 150 0 0
0.0761602 -0.139194 -1.054 147 0 0
0.0780441 -0.139326 -1.055 147 0 0
0.0799314 -0.139458 -1.056 147 0 0
0.0818221 -0.139591 -1.057 147 0 0
0.083838 -0.139926 -1.059 144 0 0
0.0857382 -0.140058 -1.06 143 0 0
0.087642 -0.14019 -1.061 142 0 0
0.0897178 -0.140586 -1.064 139 0 0
0.0914597 -0.140454 -1.063 140 0 0
0.093286 -0.140454 -1.063 140 0 0
0.0952912 -0.140718 -1.065 139 0 0
0.097446 -0.141189 -1.068 139 0 0
0.0993748 -0.141322 -1.069 138 0 0
0.101402 -0.141586 -1.071 136 0 0
0.103339 -0.141718 -1.072 135 0 0
0.10528 -0.14185 -1.073 135 0 0
0.107271 -0.142045 -1.074 135 0 0
0.109118 -0.142045 -1.074 135 0 0
0.111068 -0.142177 -1.075 135 0 0
0.113022 -0.142309 -1.076 135 0 0
0.115086 -0.142574 -1.078 135 0 0
0.117006 -0.142655 -1.078 135 0 0
0.119081 -0.142919 -1.08 134 0 0
0.121388 -0.143449 -1.084 131 0 0
0.124163 -0.144507 -1.092 131 0 0
0.126503 -0.145037 -1.096 129 0 0
-0.102232 -0.147713 -1.103 127 0 0
-0.0992445 -0.146106 -1.091 131 0 0
-0.0967444 -0.145169 -1.084 131 0 0
-0.0944434 -0.144499 -1.079 135 0 0
-0.0921967 -0.143887 -1.075 135 0 0
-0.0900137 -0.143352 -1.071 136 0 0
-0.0880913 -0.143218 -1.07 137 0 0
-0.08585 -0.142549 -1.065 139 0 0
-0.0839414 -0.142415 -1.064 139 0 0
-0.081959 -0.142147 -1.062 141 0 0
-0.0795659 -0.141139 -1.055 147 0 0
-0.0767962 -0.1394 -1.042 155 0 0
-0.0750069 -0.1394 -1.042 155 0 0
-0.0723041 -0.13766 -1.029 173 0 0
-0.0699202 -0.136456 -1.02 187 0 0
-0.0678346 -0.135787 -1.015 193 0 0
-0.0661568 -0.135921 -1.016 191 0 0
-0.0644121 -0.135921 -1.016 191 0 0
-0.062452 -0.135454 -1.013 198 0 0
-0.0604736 -0.134919 -1.009 210 0 0
-0.0586836 -0.134785 -1.008 213 0 0
-0.0567841 -0.134384 -1.005 219 0 0
-0.0547852 -0.133716 -1 238 0 0
-0.0528566 -0.133181 -0.996 255 2 0
-0.0510958 -0.133047 -0.995 255 7 0
-0.0490406 -0.132111 -0.988 255 42 0
-0.0469615 -0.131041 -0.98 255 84 0
-0.0450947 -0.130506 -0.976 255 104 0
-0.0435733 -0.130968 -0.98 255 84 0
-0.0418067 -0.130701 -0.978 255 93 0
-0.040088 -0.130567 -0.977 255 99 0
-0.0384907 -0.130835 -0.979 255 88 0
-0.0368114 -0.130835 -0.979 255 88 0
-0.035132 -0.130835 -0.979 255 88 0
-0.0334527 -0.130835 -0.979 255 88 0
-0.0317409 -0.130701 -0.978 255 93 0
-0.0300325 -0.130567 -0.977 255 99 0
-0.0283856 -0.130701 -0.978 255 93 0
-0.0266534 -0.130434 -0.976 255 104 0
-0.024928 -0.130167 -0.974 255 114 0
-0.0232811 -0.1303 -0.975 255 109 0
-0.0216529 -0.130567 -0.977 255 99 0
-0.019977 -0.130567 -0.977 255 99 0
-0.0183011 -0.130567 -0.977 255 99 0
-0.0166008 -0.130376 -0.976 255 104 0
-0.014912 -0.130243 -0.975 255 109 0
-0.0132403 -0.130243 -0.975 255 109 0
-0.0115685 -0.130243 -0.975 255 109 0
-0.00989679 -0.130243 -0.975 255 109 0
-0.00823348 -0.130376 -0.976 255 104 0
-0.00655329 -0.130243 -0.975 255 109 0
-0.00488154 -0.130243 -0.975 255 109 0
-0.0032032 -0.129976 -0.973 255 118 0
-0.00153488 -0.129976 -0.973 255 118 0
0.000133443 -0.129976 -0.973 255 118 0
0.00180362 -0.130109 -0.974 255 114 0
0.00347009 -0.129976 -0.973 255 118 0
0.00514369 -0.130109 -0.974 255 114 0
0.00680673 -0.129976 -0.973 255 118 0
0.00847505 -0.129976 -0.973 255 118 0
0.0101434 -0.129976 -0.973 255 118 0
0.0117996 -0.129842 -0.972 255 122 0
0.0135077 -0.130243 -0.975 255 109 0
0.0152106 -0.13051 -0.977 255 99 0
0.0169376 -0.130911 -0.98 255 84 0
0.0186452 -0.131102 -0.981 255 79 0
0.020328 -0.131102 -0.981 255 79 0
0.0220332 -0.131236 -0.982 255 75 0
0.0237418 -0.131369 -0.983 255 70 0
0.0254798 -0.131637 -0.985 255 60 0
0.027197 -0.13177 -0.986 255 54 0
0.0289177 -0.131904 -0.987 255 48 0
0.0306108 -0.131904 -0.987 255 48 0
0.0323366 -0.132038 -0.988 255 42 0
0.0340658 -0.132171 -0.989 255 35 0
0.0358346 -0.132438 -0.991 255 24 0
0.0375724 -0.132572 -0.992 255 20 0
0.0392345 -0.132438 -0.991 255 24 0
0.041017 -0.132706 -0.993 255 15 0
0.0427634 -0.132839 -0.994 255 11 0
0.044558 -0.133107 -0.996 255 2 0
0.0462923 -0.133181 -0.996 255 2 0
0.0480981 -0.133448 -0.998 249 0 0
0.0497611 -0.133314 -0.997 254 0 0
0.0514723 -0.133314 -0.997 254 0 0
0.0532368 -0.133448 -0.998 249 0 0
0.0548946 -0.133314 -0.997 254 0 0
0.0567194 -0.133582 -0.999 244 0 0
0.0587264 -0.13425 -1.004 222 0 0
0.0606905 -0.134785 -1.008 213 0 0
0.0627302 -0.135454 -1.013 198 0 0
0.0656463 -0.137928 -1.031 171 0 0
0.0684629 -0.140068 -1.047 153 0 0
0.0699253 -0.1394 -1.042 155 0 0
0.0722651 -0.14047 -1.05 150 0 0
0.0740682 -0.14047 -1.05 150 0 0
0.0760157 -0.140737 -1.052 148 0 0
0.0779701 -0.141005 -1.054 147 0 0
0.0799314 -0.141272 -1.056 147 0 0
0.0819411 -0.141612 -1.058 146 0 0
0.0837588 -0.141612 -1.058 146 0 0
0.0856574 -0.141746 -1.059 144 0 0
0.0875594 -0.14188 -1.06 143 0 0
0.0893805 -0.14188 -1.06 143 0 0
0.0914597 -0.142281 -1.063 140 0 0
0.0932475 -0.142222 -1.062 141 0 0
0.0953416 -0.142624 -1.065 139 0 0
0.0973547 -0.142892 -1.067 139 0 0
0.0993748 -0.14316 -1.069 138 0 0
0.101307 -0.143294 -1.07 137 0 0
0.103243 -0.143428 -1.071 136 0 0
0.105326 -0.143758 -1.073 135 0 0
0.107271 -0.143892 -1.074 135 0 0
0.109016 -0.143758 -1.073 135 0 0
0.110965 -0.143892 -1.074 135 0 0
0.112917 -0.144026 -1.075 135 0 0
0.114831 -0.144108 -1.075 135 0 0
0.116789 -0.144242 -1.076 135 0 0
0.118971 -0.144644 -1.079 135 0 0
0.121276 -0.14518 -1.083 131 0 0
0.123367 -0.145449 -1.085 131 0 0
0.125754 -0.146053 -1.089 131 0 0
-0.103467 -0.14866 -1.096 129 0 0
-0.100935 -0.147711 -1.089 131 0 0
-0.0983349 -0.146626 -1.081 133 0 0
-0.0960304 -0.145948 -1.076 135 0 0
-0.0940933 -0.145812 -1.075 135 0 0
-0.0919022 -0.145269 -1.071 136 0 0
-0.0897615 -0.144786 -1.068 139 0 0
-0.0876797 -0.144379 -1.065 139 0 0
-0.0854469 -0.143701 -1.06 143 0 0
-0.0833102 -0.143159 -1.056 147 0 0
-0.0813416 -0.142888 -1.054 147 0 0
-0.0790781 -0.142075 -1.048 152 0 0
-0.0766877 -0.14099 -1.04 157 0 0
-0.0748629 -0.140918 -1.04 157 0 0
-0.0721636 -0.139157 -1.027 175 0 0
-0.0698517 -0.138073 -1.019 188 0 0
-0.0679682 -0.137802 -1.017 190 0 0
-0.0660916 -0.137531 -1.015 193 0 0
-0.0642219 -0.13726 -1.013 198 0 0
-0.0623591 -0.136989 -1.011 204 0 0
-0.0605631 -0.136854 -1.01 207 0 0
-0.0586254 -0.136381 -1.007 215 0 0
-0.0566711 -0.135839 -1.003 226 0 0
-0.0548948 -0.135703 -1.002 229 0 0
-0.0528566 -0.134891 -0.996 255 2 0
-0.0509931 -0.134485 -0.993 255 15 0
-0.0490903 -0.133943 -0.989 255 35 0
-0.0470094 -0.132859 -0.981 255 79 0
-0.0452795 -0.132724 -0.98 255 84 0
-0.043642 -0.132859 -0.981 255 79 0
-0.0418727 -0.132588 -0.979 255 88 0
-0.0401925 -0.132588 -0.979 255 88 0
-0.0384907 -0.132515 -0.979 255 88 0
-0.036849 -0.13265 -0.98 255 84 0
-0.0351679 -0.13265 -0.98 255 84 0
-0.033521 -0.132785 -0.981 255 79 0
-0.0317409 -0.132379 -0.978 255 93 0
-0.0300325 -0.132244 -0.977 255 99 0
-0.0283566 -0.132244 -0.977 255 99 0
-0.0266807 -0.132244 -0.977 255 99 0
-0.0249536 -0.131973 -0.975 255 109 0
-0.023305 -0.132109 -0.976 255 104 0
-0.0216307 -0.132109 -0.976 255 104 0
-0.019977 -0.132244 -0.977 255 99 0
-0.0183011 -0.132244 -0.977 255 99 0
-0.0166081 -0.132109 -0.976 255 104 0
-0.0149492 -0.132244 -0.977 255 99 0
-0.0132326 -0.131838 -0.974 255 114 0
-0.0115618 -0.131838 -0.974 255 114 0
-0.00990116 -0.131973 -0.975 255 109 0
-0.00824555 -0.132244 -0.977 255 99 0
-0.0065629 -0.132109 -0.976 255 104 0
-0.00488369 -0.131973 -0.975 255 109 0
-0.0032112 -0.131973 -0.975 255 109 0
-0.00153871 -0.131973 -0.975 255 109 0
0.000133777 -0.131973 -0.975 255 109 0
0.00180627 -0.131973 -0.975 255 109 0
0.00347876 -0.131973 -0.975 255 109 0
0.00514596 -0.131838 -0.974 255 114 0
0.00681674 -0.131838 -0.974 255 114 0
0.00848751 -0.131838 -0.974 255 114 0
0.0101583 -0.131838 -0.974 255 114 0
0.0118291 -0.131838 -0.974 255 114 0
0.0135276 -0.132109 -0.976 255 104 0
0.0152485 -0.132515 -0.979 255 88 0
0.0169451 -0.13265 -0.98 255 84 0
0.0186452 -0.132785 -0.981 255 79 0
0.0203487 -0.132921 -0.982 255 75 0
0.0220556 -0.133056 -0.983 255 70 0
0.0237418 -0.133056 -0.983 255 70 0
0.0254281 -0.133056 -0.983 255 70 0
0.0271694 -0.133327 -0.985 255 60 0
0.0289177 -0.133598 -0.987 255 48 0
0.0306418 -0.133733 -0.988 255 42 0
0.032402 -0.134004 -0.99 255 29 0
0.0341002 -0.134004 -0.99 255 29 0
0.0358346 -0.134139 -0.991 255 24 0
0.0376103 -0.13441 -0.993 255 15 0
0.0393137 -0.13441 -0.993 255 15 0
0.0410399 -0.134485 -0.993 255 15 0
0.0427872 -0.13462 -0.994 255 11 0
0.0446276 -0.135026 -0.997 254 0 0
0.0462923 -0.134891 -0.996 255 2 0
0.0480981 -0.135162 -0.998 249 0 0
0.049811 -0.135162 -0.998 249 0 0
0.0515239 -0.135162 -0.998 249 0 0
0.0532368 -0.135162 -0.998 249 0 0
0.0549497 -0.135162 -0.998 249 0 0
0.0567761 -0.135433 -1 238 0 0
0.0587849 -0.13611 -1.005 219 0 0
0.0610212 -0.13726 -1.013 198 0 0
0.0626987 -0.137124 -1.012 200 0 0
0.0655826 -0.139563 -1.03 172 0 0
0.068136 -0.141189 -1.042 155 0 0
0.0698582 -0.141054 -1.041 156 0 0
0.0724716 -0.14268 -1.053 147 0 0
0.0738565 -0.141867 -1.047 153 0 0
0.0759434 -0.142409 -1.051 149 0 0
0.0779357 -0.142752 -1.053 147 0 0
0.079972 -0.143159 -1.056 147 0 0
0.0819411 -0.14343 -1.058 146 0 0
0.0836796 -0.143295 -1.057 147 0 0
0.0854956 -0.143295 -1.057 147 0 0
0.087229 -0.143159 -1.056 147 0 0
0.0892962 -0.143566 -1.059 144 0 0
0.0913359 -0.143913 -1.061 142 0 0
0.0932475 -0.144049 -1.062 141 0 0
0.0953416 -0.144456 -1.065 139 0 0
0.097081 -0.14432 -1.064 139 0 0
0.0991889 -0.144727 -1.067 139 0 0
0.101212 -0.144998 -1.069 138 0 0
0.102999 -0.144926 -1.068 139 0 0
0.105228 -0.145469 -1.072 135 0 0
0.107171 -0.145604 -1.073 135 0 0
0.109016 -0.145604 -1.073 135 0 0
0.110758 -0.145469 -1.072 135 0 0
0.112876 -0.145823 -1.074 135 0 0
0.114831 -0.145958 -1.075 135 0 0
0.116789 -0.146094 -1.076 135 0 0
0.118861 -0.146366 -1.078 135 0 0
0.121276 -0.147045 -1.083 131 0 0
0.122969 -0.146842 -1.081 133 0 0
0.125754 -0.147928 -1.089 131 0 0
0.129387 -0.149966 -1.104 127 0 0
-0.10924 -0.153359 -1.116 127 0 0
-0.105397 -0.150611 -1.096 129 0 0
-0.102851 -0.149649 -1.089 131 0 0
-0.10033 -0.148687 -1.082 132 0 0
-0.0977891 -0.14766 -1.075 135 0 0
-0.0956734 -0.147248 -1.072 135 0 0
-0.0940058 -0.147523 -1.074 135 0 0
-0.0916448 -0.146699 -1.068 139 0 0
-0.0896408 -0.146424 -1.066 139 0 0
-0.0873142 -0.1456 -1.06 143 0 0
-0.0848826 -0.144562 -1.053 147 0 0
-0.0823635 -0.143327 -1.044 155 0 0
-0.0807242 -0.143601 -1.046 155 0 0
-0.0787008 -0.143189 -1.043 155 0 0
-0.0768352 -0.143052 -1.042 155 0 0
-0.0746128 -0.142228 -1.036 164 0 0
-0.0726221 -0.141816 -1.033 169 0 0
-0.0701944 -0.14051 -1.024 178 0 0
-0.0683692 -0.140372 -1.023 180 0 0
-0.0662219 -0.139549 -1.017 190 0 0
-0.0642853 -0.139137 -1.014 196 0 0
-0.0624207 -0.138863 -1.012 200 0 0
-0.0605031 -0.138451 -1.009 210 0 0
-0.058654 -0.138177 -1.007 215 0 0
-0.0566421 -0.137491 -1.002 229 0 0
-0.0547852 -0.13715 -1 238 0 0
-0.0530158 -0.137012 -0.999 244 0 0
-0.0510958 -0.136464 -0.995 255 7 0
-0.0489413 -0.135229 -0.986 255 54 0
-0.0470574 -0.134681 -0.982 255 75 0
-0.0453257 -0.134544 -0.981 255 79 0
-0.0436865 -0.134681 -0.982 255 75 0
-0.0419155 -0.134407 -0.98 255 84 0
-0.0401514 -0.134132 -0.978 255 93 0
-0.0385515 -0.134407 -0.98 255 84 0
-0.0369071 -0.134544 -0.981 255 79 0
-0.0352234 -0.134544 -0.981 255 79 0
-0.0334527 -0.134195 -0.979 255 88 0
-0.0317409 -0.134058 -0.978 255 93 0
-0.0300632 -0.134058 -0.978 255 93 0
-0.0283566 -0.13392 -0.977 255 99 0
-0.0266807 -0.13392 -0.977 255 99 0
-0.0250048 -0.13392 -0.977 255 99 0
-0.0233527 -0.134058 -0.978 255 93 0
-0.0216751 -0.134058 -0.978 255 93 0
-0.019977 -0.13392 -0.977 255 99 0
-0.0183011 -0.13392 -0.977 255 99 0
-0.0166251 -0.13392 -0.977 255 99 0
-0.0149492 -0.13392 -0.977 255 99 0
-0.0132733 -0.13392 -0.977 255 99 0
-0.0115855 -0.133783 -0.976 255 104 0
-0.00991131 -0.133783 -0.976 255 104 0
-0.00823711 -0.133783 -0.976 255 104 0
-0.0065629 -0.133783 -0.976 255 104 0
-0.00488369 -0.133646 -0.975 255 109 0
-0.0032112 -0.133646 -0.975 255 109 0
-0.00153871 -0.133646 -0.975 255 109 0
0.000133777 -0.133646 -0.975 255 109 0
0.00180627 -0.133646 -0.975 255 109 0
0.00347519 -0.133509 -0.974 255 114 0
0.00514068 -0.133372 -0.973 255 118 0
0.00680974 -0.133372 -0.973 255 118 0
0.0084788 -0.133372 -0.973 255 118 0
0.0101479 -0.133372 -0.973 255 118 0
0.0118291 -0.133509 -0.974 255 114 0
0.0135137 -0.133646 -0.975 255 109 0
0.0152173 -0.13392 -0.977 255 99 0
0.0169278 -0.134195 -0.979 255 88 0
0.0186072 -0.134195 -0.979 255 88 0
0.0203694 -0.134743 -0.983 255 70 0
0.0220781 -0.13488 -0.984 255 65 0
0.023766 -0.13488 -0.984 255 65 0
0.0254539 -0.13488 -0.984 255 65 0
0.0271694 -0.135017 -0.985 255 60 0
0.028947 -0.135428 -0.988 255 42 0
0.0306108 -0.135291 -0.987 255 48 0
0.032402 -0.135702 -0.99 255 29 0
0.0341691 -0.135977 -0.992 255 20 0
0.0358907 -0.136052 -0.992 255 20 0
0.0376691 -0.136327 -0.994 255 11 0
0.0394148 -0.136464 -0.995 255 7 0
0.0410812 -0.136327 -0.994 255 11 0
0.0427872 -0.136327 -0.994 255 11 0
0.0445828 -0.136601 -0.996 255 2 0
0.0462923 -0.136601 -0.996 255 2 0
0.0480981 -0.136875 -0.998 249 0 0
0.049811 -0.136875 -0.998 249 0 0
0.0515239 -0.136875 -0.998 249 0 0
0.0532901 -0.137012 -0.999 244 0 0
0.0550315 -0.137079 -0.999 244 0 0
0.0569742 -0.137628 -1.003 226 0 0
0.0586965 -0.137628 -1.003 226 0 0
0.0607803 -0.138451 -1.009 210 0 0
0.0627607 -0.139 -1.013 198 0 0
0.0660283 -0.142293 -1.037 162 0 0
0.0680706 -0.142842 -1.041 156 0 0
0.0700595 -0.143254 -1.044 155 0 0
0.0720587 -0.143665 -1.047 153 0 0
0.0741058 -0.14415 -1.05 150 0 0
0.075982 -0.144288 -1.051 149 0 0
0.0780097 -0.144699 -1.054 147 0 0
0.0798962 -0.144837 -1.055 147 0 0
0.0817088 -0.144837 -1.055 147 0 0
0.0836005 -0.144974 -1.056 147 0 0
0.0854147 -0.144974 -1.056 147 0 0
0.0871924 -0.144913 -1.055 147 0 0
0.089259 -0.145325 -1.058 146 0 0
0.0912498 -0.1456 -1.06 143 0 0
0.0931597 -0.145737 -1.061 142 0 0
0.0949835 -0.145737 -1.061 142 0 0
0.0969898 -0.146012 -1.063 140 0 0
0.0990463 -0.146351 -1.065 139 0 0
0.100972 -0.146488 -1.066 139 0 0
0.102902 -0.146626 -1.067 139 0 0
0.104835 -0.146763 -1.068 139 0 0
0.106772 -0.146901 -1.069 138 0 0
0.10861 -0.146901 -1.069 138 0 0
0.110821 -0.147396 -1.072 135 0 0
0.112876 -0.147671 -1.074 135 0 0
0.114831 -0.147809 -1.075 135 0 0
0.11668 -0.147809 -1.075 135 0 0
0.11853 -0.147809 -1.075 135 0 0
0.12122 -0.148841 -1.082 132 0 0
0.122742 -0.148428 -1.079 135 0 0
0.125523 -0.149529 -1.087 131 0 0
0.128449 -0.150767 -1.096 129 0 0
0.132421 -0.153179 -1.113 127 0 0
-0.110126 -0.153836 -1.105 127 0 0
-0.107184 -0.152357 -1.095 130 0 0
-0.104436 -0.151105 -1.086 131 0 0
-0.10219 -0.150548 -1.082 132 0 0
-0.0997733 -0.149714 -1.076 135 0 0
-0.0976499 -0.149296 -1.073 135 0 0
-0.0954057 -0.148674 -1.069 138 0 0
-0.0934806 -0.148535 -1.068 139 0 0
-0.091559 -0.148396 -1.067 139 0 0
-0.0890522 -0.147284 -1.059 144 0 0
-0.0869023 -0.146727 -1.055 147 0 0
-0.0846855 -0.146032 -1.05 150 0 0
-0.0823281 -0.145058 -1.043 155 0 0
-0.0805699 -0.145121 -1.044 155 0 0
-0.0786254 -0.144843 -1.042 155 0 0
-0.0766877 -0.144565 -1.04 157 0 0
-0.0745408 -0.14387 -1.035 166 0 0
-0.072833 -0.144009 -1.036 164 0 0
-0.070573 -0.143036 -1.029 173 0 0
-0.0684039 -0.142202 -1.023 180 0 0
-0.0663521 -0.141574 -1.019 188 0 0
-0.0643487 -0.141018 -1.015 193 0 0
-0.0624824 -0.14074 -1.013 198 0 0
-0.0605631 -0.140323 -1.01 207 0 0
-0.058654 -0.139907 -1.007 215 0 0
-0.0568117 -0.139629 -1.005 219 0 0
-0.0550312 -0.13949 -1.004 222 0 0
-0.0531479 -0.139073 -1.001 233 0 0
-0.0511721 -0.138378 -0.996 255 2 0
-0.0489413 -0.136922 -0.986 255 54 0
-0.0470574 -0.136367 -0.982 255 75 0
-0.0453719 -0.136367 -0.982 255 75 0
-0.0436865 -0.136367 -0.982 255 75 0
-0.0419155 -0.136089 -0.98 255 84 0
-0.0401514 -0.135811 -0.978 255 93 0
-0.0385122 -0.13595 -0.979 255 88 0
-0.0369448 -0.136367 -0.982 255 75 0
-0.0352593 -0.136367 -0.982 255 75 0
-0.0335397 -0.136228 -0.981 255 79 0
-0.031856 -0.136228 -0.981 255 79 0
-0.0301415 -0.136089 -0.98 255 84 0
-0.0284305 -0.13595 -0.979 255 88 0
-0.0266955 -0.135673 -0.977 255 99 0
-0.0250303 -0.135736 -0.978 255 93 0
-0.0234243 -0.136152 -0.981 255 79 0
-0.0217637 -0.136291 -0.982 255 75 0
-0.0199974 -0.135736 -0.978 255 93 0
-0.0183011 -0.135597 -0.977 255 99 0
-0.0166422 -0.135736 -0.978 255 93 0
-0.0149645 -0.135736 -0.978 255 93 0
-0.0132733 -0.135597 -0.977 255 99 0
-0.0115855 -0.135458 -0.976 255 104 0
-0.00992147 -0.135597 -0.977 255 99 0
-0.00823711 -0.135458 -0.976 255 104 0
-0.00655618 -0.135319 -0.975 255 109 0
-0.0048887 -0.135458 -0.976 255 104 0
-0.0032112 -0.135319 -0.975 255 109 0
-0.00153871 -0.135319 -0.975 255 109 0
0.000133914 -0.135458 -0.976 255 104 0
0.00180812 -0.135458 -0.976 255 104 0
0.00348232 -0.135458 -0.976 255 104 0
0.00515124 -0.135319 -0.975 255 109 0
0.00681674 -0.135181 -0.974 255 114 0
0.00848751 -0.135181 -0.974 255 114 0
0.0101583 -0.135181 -0.974 255 114 0
0.0118048 -0.134903 -0.972 255 122 0
0.0135137 -0.135319 -0.975 255 109 0
0.0152329 -0.135736 -0.978 255 93 0
0.0169451 -0.136013 -0.98 255 84 0
0.0186642 -0.136291 -0.982 255 75 0
0.0203694 -0.13643 -0.983 255 70 0
0.0220781 -0.136569 -0.984 255 65 0
0.0237902 -0.136707 -0.985 255 60 0
0.0254798 -0.136707 -0.985 255 60 0
0.0272398 -0.137061 -0.987 255 48 0
0.0289924 -0.137339 -0.989 255 35 0
0.0307209 -0.137478 -0.99 255 29 0
0.0324201 -0.137478 -0.99 255 29 0
0.0341881 -0.137756 -0.992 255 20 0
0.0358907 -0.137756 -0.992 255 20 0
0.0376691 -0.138033 -0.994 255 11 0
0.0394148 -0.138172 -0.995 255 7 0
0.0411225 -0.138172 -0.995 255 7 0
0.0428733 -0.138311 -0.996 255 2 0
0.0446723 -0.138589 -0.998 249 0 0
0.0463852 -0.138589 -0.998 249 0 0
0.0480981 -0.138589 -0.998 249 0 0
0.0498609 -0.138728 -0.999 244 0 0
0.0516523 -0.138934 -1 238 0 0
0.0533161 -0.138795 -0.999 244 0 0
0.0550866 -0.138934 -1 238 0 0
0.0569742 -0.139351 -1.003 226 0 0
0.058755 -0.13949 -1.004 222 0 0
0.0607803 -0.140184 -1.009 210 0 0
0.0631324 -0.141574 -1.019 188 0 0
0.06571 -0.14338 -1.032 170 0 0
0.0676782 -0.143797 -1.035 166 0 0
0.0698936 -0.144704 -1.041 156 0 0
0.0720264 -0.145399 -1.046 155 0 0
0.073894 -0.145538 -1.047 153 0 0
0.0759097 -0.145955 -1.05 150 0 0
0.0779357 -0.146372 -1.053 147 0 0
0.0797448 -0.146372 -1.053 147 0 0
0.0816313 -0.146511 -1.054 147 0 0
0.0834862 -0.146588 -1.054 147 0 0
0.085298 -0.146588 -1.054 147 0 0
0.0871098 -0.146588 -1.054 147 0 0
0.0891746 -0.147006 -1.057 147 0 0
0.0910776 -0.147145 -1.058 146 0 0
0.0930719 -0.147423 -1.06 143 0 0
0.094894 -0.147423 -1.06 143 0 0
0.0968497 -0.147626 -1.061 142 0 0
0.0988603 -0.147905 -1.063 140 0 0
0.100783 -0.148044 -1.064 139 0 0
0.102709 -0.148183 -1.065 139 0 0
0.104639 -0.148322 -1.066 139 0 0
0.106532 -0.148406 -1.066 139 0 0
0.108367 -0.148406 -1.066 139 0 0
0.110718 -0.149102 -1.071 136 0 0
0.112771 -0.149381 -1.073 135 0 0
0.114724 -0.14952 -1.074 135 0 0
0.116626 -0.14959 -1.074 135 0 0
0.118475 -0.14959 -1.074 135 0 0
0.121108 -0.150565 -1.081 133 0 0
0.122628 -0.150147 -1.078 135 0 0
0.12483 -0.150565 -1.081 133 0 0
0.126518 -0.150359 -1.079 135 0 0
0.131232 -0.153703 -1.103 127 0 0
-0.11465 -0.156724 -1.112 127 0 0
-0.110608 -0.153765 -1.091 131 0 0
-0.107933 -0.152637 -1.083 131 0 0
-0.105972 -0.152496 -1.082 132 0 0
-0.103378 -0.151424 -1.075 135 0 0
-0.10134 -0.151142 -1.073 135 0 0
-0.0994024 -0.151001 -1.072 135 0 0
-0.0975589 -0.151001 -1.072 135 0 0
-0.0952689 -0.150297 -1.067 139 0 0
-0.092821 -0.149311 -1.06 143 0 0
-0.0905293 -0.148542 -1.055 147 0 0
-0.0882953 -0.147838 -1.05 150 0 0
-0.0862433 -0.147415 -1.047 153 0 0
-0.0842016 -0.146993 -1.044 155 0 0
-0.082486 -0.147134 -1.045 155 0 0
-0.0806897 -0.147134 -1.045 155 0 0
-0.0780972 -0.145649 -1.035 166 0 0
-0.0764665 -0.14593 -1.037 162 0 0
-0.0745408 -0.145649 -1.035 166 0 0
-0.0727627 -0.145649 -1.035 166 0 0
-0.0701615 -0.14396 -1.023 180 0 0
-0.0682033 -0.143538 -1.02 187 0 0
-0.0665161 -0.143678 -1.021 184 0 0
-0.0646985 -0.143538 -1.02 187 0 0
-0.0626675 -0.142902 -1.016 191 0 0
-0.0604431 -0.141777 -1.008 213 0 0
-0.0587122 -0.141777 -1.008 213 0 0
-0.0568683 -0.141496 -1.006 217 0 0
-0.055086 -0.141355 -1.005 219 0 0
-0.0530948 -0.140652 -1 238 0 0
-0.0512748 -0.140371 -0.998 249 0 0
-0.0490148 -0.138823 -0.987 255 48 0
-0.0472241 -0.138542 -0.985 255 60 0
-0.0454865 -0.138401 -0.984 255 65 0
-0.043642 -0.137912 -0.981 255 79 0
-0.0420866 -0.138334 -0.984 255 65 0
-0.0401514 -0.137491 -0.978 255 93 0
-0.0385515 -0.137772 -0.98 255 84 0
-0.0369824 -0.138193 -0.983 255 70 0
-0.0352952 -0.138193 -0.983 255 70 0
-0.0335739 -0.138053 -0.982 255 75 0
-0.031856 -0.137912 -0.981 255 79 0
-0.0301723 -0.137912 -0.981 255 79 0
-0.0284885 -0.137912 -0.981 255 79 0
-0.0267775 -0.137772 -0.98 255 84 0
-0.0251211 -0.137912 -0.981 255 79 0
-0.0234613 -0.138053 -0.982 255 75 0
-0.0217758 -0.138053 -0.982 255 75 0
-0.020029 -0.137631 -0.979 255 88 0
-0.01833 -0.137491 -0.978 255 93 0
-0.0166514 -0.137491 -0.978 255 93 0
-0.0149645 -0.137414 -0.978 255 93 0
-0.0132733 -0.137274 -0.977 255 99 0
-0.0116093 -0.137414 -0.978 255 93 0
-0.00994178 -0.137555 -0.979 255 88 0
-0.00824555 -0.137274 -0.977 255 99 0
-0.0065629 -0.137133 -0.976 255 104 0
-0.0048887 -0.137133 -0.976 255 104 0
-0.00321779 -0.137274 -0.977 255 99 0
-0.00154187 -0.137274 -0.977 255 99 0
0.000133914 -0.137133 -0.976 255 104 0
0.00180627 -0.136993 -0.975 255 109 0
0.00348589 -0.137274 -0.977 255 99 0
0.00515653 -0.137133 -0.976 255 104 0
0.00682373 -0.136993 -0.975 255 109 0
0.00850494 -0.137133 -0.976 255 104 0
0.0101791 -0.137133 -0.976 255 104 0
0.0118776 -0.137414 -0.978 255 93 0
0.0135691 -0.137555 -0.979 255 88 0
0.0152726 -0.137772 -0.98 255 84 0
0.0169546 -0.137772 -0.98 255 84 0
0.0186746 -0.138053 -0.982 255 75 0
0.0204015 -0.138334 -0.984 255 65 0
0.0221128 -0.138475 -0.985 255 60 0
0.0238034 -0.138475 -0.985 255 60 0
0.025494 -0.138475 -0.985 255 60 0
0.0271846 -0.138475 -0.985 255 60 0
0.0289924 -0.139037 -0.989 255 35 0
0.0306899 -0.139037 -0.989 255 35 0
0.0323873 -0.139037 -0.989 255 35 0
0.0341881 -0.139459 -0.992 255 20 0
0.0359269 -0.139599 -0.993 255 15 0
0.0376691 -0.13974 -0.994 255 11 0
0.0393752 -0.13974 -0.994 255 11 0
0.0410812 -0.13974 -0.994 255 11 0
0.0429164 -0.140162 -0.997 254 0 0
0.0446723 -0.140302 -0.998 249 0 0
0.0464543 -0.140511 -0.999 244 0 0
0.048218 -0.140652 -1 238 0 0
0.0498353 -0.140371 -0.998 249 0 0
0.0516006 -0.140511 -0.999 244 0 0
0.0534762 -0.140933 -1.002 229 0 0
0.055307 -0.141214 -1.004 222 0 0
0.057031 -0.141214 -1.004 222 0 0
0.0588721 -0.141496 -1.006 217 0 0
0.0605996 -0.141496 -1.006 217 0 0
0.0630085 -0.143043 -1.017 190 0 0
0.0657433 -0.145226 -1.032 170 0 0
0.0680397 -0.146352 -1.04 157 0 0
0.0702965 -0.147337 -1.047 153 0 0
0.0719575 -0.147056 -1.045 155 0 0
0.0737529 -0.147056 -1.045 155 0 0
0.0757651 -0.147478 -1.048 152 0 0
0.0777877 -0.1479 -1.051 149 0 0
0.0797112 -0.148119 -1.052 148 0 0
0.0815195 -0.148119 -1.052 148 0 0
0.083407 -0.14826 -1.053 147 0 0
0.0852171 -0.14826 -1.053 147 0 0
0.0870271 -0.14826 -1.053 147 0 0
0.0890059 -0.148542 -1.055 147 0 0
0.0909916 -0.148823 -1.057 147 0 0
0.0930248 -0.14917 -1.059 144 0 0
0.094846 -0.14917 -1.059 144 0 0
0.0967584 -0.149311 -1.06 143 0 0
0.0987673 -0.149593 -1.062 141 0 0
0.100688 -0.149733 -1.063 140 0 0
0.102516 -0.149733 -1.063 140 0 0
0.104502 -0.149959 -1.064 139 0 0
0.106432 -0.1501 -1.065 139 0 0
0.108163 -0.149959 -1.064 139 0 0
0.110408 -0.150523 -1.068 139 0 0
0.112666 -0.151087 -1.072 135 0 0
0.114778 -0.151439 -1.074 135 0 0
0.116518 -0.151298 -1.073 135 0 0
0.118365 -0.151298 -1.073 135 0 0
0.120436 -0.15158 -1.075 135 0 0
0.122628 -0.152003 -1.078 135 0 0
0.124313 -0.151795 -1.076 135 0 0
0.126635 -0.152359 -1.08 134 0 0
0.130399 -0.154616 -1.096 129 0 0
-0.119385 -0.159854 -1.12 127 0 0
-0.112279 -0.155357 -1.089 131 0 0
-0.109087 -0.153503 -1.076 135 0 0
-0.107335 -0.153645 -1.077 135 0 0
-0.105482 -0.153645 -1.077 135 0 0
-0.103052 -0.152789 -1.071 136 0 0
-0.100831 -0.152219 -1.067 139 0 0
-0.098846 -0.15199 -1.066 139 0 0
-0.0967398 -0.151562 -1.063 140 0 0
-0.0942868 -0.150564 -1.056 147 0 0
-0.0920329 -0.149851 -1.051 149 0 0
-0.0902255 -0.149851 -1.051 149 0 0
-0.0877451 -0.148711 -1.043 155 0 0
-0.0859962 -0.148788 -1.044 155 0 0
-0.0844436 -0.149216 -1.047 153 0 0
-0.0820124 -0.148075 -1.039 158 0 0
-0.0798403 -0.147363 -1.034 168 0 0
-0.0779119 -0.147078 -1.032 170 0 0
-0.0759904 -0.146793 -1.03 172 0 0
-0.0743248 -0.147 -1.032 170 0 0
-0.0719893 -0.145861 -1.024 178 0 0
-0.0701615 -0.145718 -1.023 180 0 0
-0.0683371 -0.145576 -1.022 182 0 0
-0.0665161 -0.145433 -1.021 184 0 0
-0.0646985 -0.145291 -1.02 187 0 0
-0.0626993 -0.144721 -1.016 191 0 0
-0.0606538 -0.144009 -1.011 204 0 0
-0.0587705 -0.143651 -1.009 210 0 0
-0.0568683 -0.143224 -1.006 217 0 0
-0.0549764 -0.142797 -1.003 226 0 0
-0.0530948 -0.14237 -1 238 0 0
-0.0513262 -0.142227 -0.999 244 0 0
-0.0492631 -0.141231 -0.992 255 20 0
-0.0475597 -0.141231 -0.992 255 20 0
-0.0455327 -0.140234 -0.985 255 60 0
-0.0436188 -0.139522 -0.98 255 84 0
-0.0420643 -0.139949 -0.983 255 70 0
-0.0402531 -0.139522 -0.98 255 84 0
-0.0385909 -0.139597 -0.981 255 79 0
-0.0369824 -0.139881 -0.983 255 70 0
-0.0352952 -0.139881 -0.983 255 70 0
-0.0336081 -0.139881 -0.983 255 70 0
-0.0319209 -0.139881 -0.983 255 70 0
-0.0302338 -0.139881 -0.983 255 70 0
-0.0284885 -0.139597 -0.981 255 79 0
-0.0268321 -0.139739 -0.982 255 75 0
-0.0251723 -0.139881 -0.983 255 70 0
-0.0234852 -0.139881 -0.983 255 70 0
-0.0217758 -0.139739 -0.982 255 75 0
-0.0200904 -0.139739 -0.982 255 75 0
-0.0183675 -0.139454 -0.98 255 84 0
-0.0166514 -0.13917 -0.978 255 93 0
-0.0149729 -0.13917 -0.978 255 93 0
-0.0132943 -0.13917 -0.978 255 93 0
-0.0116038 -0.139027 -0.977 255 99 0
-0.00993716 -0.13917 -0.978 255 93 0
-0.00825859 -0.13917 -0.978 255 93 0
-0.00657329 -0.139027 -0.977 255 99 0
-0.00489142 -0.138885 -0.976 255 104 0
-0.00321629 -0.138885 -0.976 255 104 0
-0.00154273 -0.139027 -0.977 255 99 0
0.000134126 -0.139027 -0.977 255 99 0
0.00181098 -0.139027 -0.977 255 99 0
0.00348783 -0.139027 -0.977 255 99 0
0.00516469 -0.139027 -0.977 255 99 0
0.00684154 -0.139027 -0.977 255 99 0
0.00851839 -0.139027 -0.977 255 99 0
0.0102057 -0.13917 -0.978 255 93 0
0.0118843 -0.13917 -0.978 255 93 0
0.0136044 -0.139597 -0.981 255 79 0
0.0152726 -0.139454 -0.98 255 84 0
0.0169546 -0.139454 -0.98 255 84 0
0.0186936 -0.139881 -0.983 255 70 0
0.0203808 -0.139881 -0.983 255 70 0
0.0221353 -0.140308 -0.986 255 54 0
0.0238517 -0.14045 -0.987 255 48 0
0.0255457 -0.14045 -0.987 255 48 0
0.0272674 -0.140593 -0.988 255 42 0
0.0289631 -0.140593 -0.988 255 42 0
0.0306588 -0.140593 -0.988 255 42 0
0.0323873 -0.140735 -0.989 255 35 0
0.0341881 -0.141162 -0.992 255 20 0
0.0359993 -0.141589 -0.995 255 7 0
0.037707 -0.141589 -0.995 255 7 0
0.0394148 -0.141589 -0.995 255 7 0
0.0411839 -0.1418 -0.996 255 2 0
0.0429803 -0.142085 -0.998 249 0 0
0.0447389 -0.142227 -0.999 244 0 0
0.0465008 -0.14237 -1 238 0 0
0.0481698 -0.142227 -0.999 244 0 0
0.0498852 -0.142227 -0.999 244 0 0
0.0516523 -0.14237 -1 238 0 0
0.0535296 -0.142797 -1.003 226 0 0
0.0553621 -0.143082 -1.005 219 0 0
0.0571446 -0.143224 -1.006 217 0 0
0.0590776 -0.143724 -1.009 210 0 0
0.0608111 -0.143724 -1.009 210 0 0
0.0628546 -0.144436 -1.014 196 0 0
0.0656796 -0.146858 -1.031 171 0 0
0.0681051 -0.148282 -1.041 156 0 0
0.0702293 -0.148994 -1.046 155 0 0
0.071751 -0.148425 -1.042 155 0 0
0.0736823 -0.148709 -1.044 155 0 0
0.0758052 -0.149358 -1.048 152 0 0
0.0776807 -0.149501 -1.049 151 0 0
0.0795596 -0.149643 -1.05 150 0 0
0.081442 -0.149786 -1.051 149 0 0
0.0832486 -0.149786 -1.051 149 0 0
0.0850552 -0.149786 -1.051 149 0 0
0.0870271 -0.150071 -1.053 147 0 0
0.0889605 -0.150279 -1.054 147 0 0
0.0908591 -0.150422 -1.055 147 0 0
0.0927613 -0.150564 -1.056 147 0 0
0.0947564 -0.150849 -1.058 146 0 0
0.0966671 -0.150992 -1.059 144 0 0
0.0986743 -0.151277 -1.061 142 0 0
0.100556 -0.151363 -1.061 142 0 0
0.102381 -0.151363 -1.061 142 0 0
0.104403 -0.151648 -1.063 140 0 0
0.106332 -0.151791 -1.064 139 0 0
0.108163 -0.151791 -1.064 139 0 0
0.110097 -0.151933 -1.065 139 0 0
0.112403 -0.152575 -1.069 138 0 0
0.114564 -0.153004 -1.072 135 0 0
0.116409 -0.153004 -1.072 135 0 0
0.118034 -0.152718 -1.07 137 0 0
0.119988 -0.152861 -1.071 136 0 0
0.122573 -0.153791 -1.077 135 0 0
0.124082 -0.153363 -1.074 135 0 0
0.1264 -0.153934 -1.078 135 0 0
0.129685 -0.155648 -1.09 131 0 0
0.13418 -0.158745 -1.111 127 0 0
-0.120555 -0.160772 -1.113 127 0 0
-0.117253 -0.158894 -1.1 127 0 0
-0.112843 -0.155427 -1.076 135 0 0
-0.111094 -0.155572 -1.077 135 0 0
-0.109037 -0.155283 -1.075 135 0 0
-0.106837 -0.154777 -1.072 135 0 0
-0.104601 -0.1542 -1.068 139 0 0
-0.102667 -0.154055 -1.067 139 0 0
-0.100169 -0.153045 -1.06 143 0 0
-0.098067 -0.152611 -1.057 147 0 0
-0.0958297 -0.151948 -1.053 147 0 0
-0.0938403 -0.151659 -1.051 149 0 0
-0.0919454 -0.151515 -1.05 150 0 0
-0.0902255 -0.151659 -1.051 149 0 0
-0.0878292 -0.150649 -1.044 155 0 0
-0.0861163 -0.150793 -1.045 155 0 0
-0.0837984 -0.149862 -1.039 158 0 0
-0.0815388 -0.148997 -1.033 169 0 0
-0.080072 -0.149574 -1.037 162 0 0
-0.0780629 -0.149141 -1.034 168 0 0
-0.0762118 -0.148997 -1.033 169 0 0
-0.0742199 -0.148564 -1.03 172 0 0
-0.0723087 -0.148275 -1.028 174 0 0
-0.0702986 -0.147765 -1.025 177 0 0
-0.0684708 -0.14762 -1.024 178 0 0
-0.0664509 -0.147044 -1.02 187 0 0
-0.064762 -0.147188 -1.021 184 0 0
-0.062761 -0.146611 -1.017 190 0 0
-0.0607738 -0.146035 -1.013 198 0 0
-0.0586255 -0.145026 -1.006 217 0 0
-0.0566144 -0.144305 -1.001 233 0 0
-0.0549494 -0.144449 -1.002 229 0 0
-0.0530948 -0.144087 -1 238 0 0
-0.0512748 -0.143799 -0.998 249 0 0
-0.0494121 -0.143367 -0.995 255 7 0
-0.0476077 -0.143079 -0.993 255 15 0
-0.0455789 -0.14207 -0.986 255 54 0
-0.0437968 -0.141782 -0.984 255 65 0
-0.0420643 -0.141638 -0.983 255 70 0
-0.0403763 -0.141638 -0.983 255 70 0
-0.038649 -0.141494 -0.982 255 75 0
-0.0370004 -0.141638 -0.983 255 70 0
-0.0353124 -0.141638 -0.983 255 70 0
-0.0336244 -0.141638 -0.983 255 70 0
-0.0319209 -0.141569 -0.983 255 70 0
-0.0302338 -0.141569 -0.983 255 70 0
-0.0285176 -0.141425 -0.982 255 75 0
-0.0268321 -0.141425 -0.982 255 75 0
-0.0251467 -0.141425 -0.982 255 75 0
-0.0234852 -0.141569 -0.983 255 70 0
-0.0217758 -0.141425 -0.982 255 75 0
-0.0200904 -0.141425 -0.982 255 75 0
-0.0183675 -0.141137 -0.98 255 84 0
-0.0166685 -0.140993 -0.979 255 88 0
-0.0149882 -0.140993 -0.979 255 88 0
-0.0133079 -0.140993 -0.979 255 88 0
-0.0116276 -0.140993 -0.979 255 88 0
-0.00994731 -0.140993 -0.979 255 88 0
-0.00826703 -0.140993 -0.979 255 88 0
-0.00658674 -0.140993 -0.979 255 88 0
-0.00489643 -0.140705 -0.977 255 99 0
-0.00321629 -0.140561 -0.976 255 104 0
-0.00154115 -0.140561 -0.976 255 104 0
0.000134126 -0.140705 -0.977 255 99 0
0.00180913 -0.140561 -0.976 255 104 0
0.00348426 -0.140561 -0.976 255 104 0
0.0051594 -0.140561 -0.976 255 104 0
0.00683454 -0.140561 -0.976 255 104 0
0.00850967 -0.140561 -0.976 255 104 0
0.0102057 -0.140849 -0.978 255 93 0
0.0118964 -0.140993 -0.979 255 88 0
0.0135767 -0.140993 -0.979 255 88 0
0.015257 -0.140993 -0.979 255 88 0
0.0169546 -0.141137 -0.98 255 84 0
0.0186746 -0.141425 -0.982 255 75 0
0.0204015 -0.141713 -0.984 255 65 0
0.0221128 -0.141857 -0.985 255 60 0
0.0238276 -0.142001 -0.986 255 54 0
0.0255716 -0.142289 -0.988 255 42 0
0.0273226 -0.142577 -0.99 255 29 0
0.0290217 -0.142577 -0.99 255 29 0
0.0306588 -0.142289 -0.988 255 42 0
0.0323873 -0.142433 -0.989 255 35 0
0.0342393 -0.143079 -0.993 255 15 0
0.0360168 -0.143367 -0.995 255 7 0
0.0376875 -0.143223 -0.994 255 11 0
0.039434 -0.143367 -0.995 255 7 0
0.0411839 -0.143511 -0.996 255 2 0
0.0429803 -0.143799 -0.998 249 0 0
0.0447389 -0.143943 -0.999 244 0 0
0.0464543 -0.143943 -0.999 244 0 0
0.048218 -0.144087 -1 238 0 0
0.0499351 -0.144087 -1 238 0 0
0.0517039 -0.144232 -1.001 233 0 0
0.0535829 -0.144664 -1.004 222 0 0
0.055335 -0.144737 -1.004 222 0 0
0.05706 -0.144737 -1.004 222 0 0
0.0590776 -0.145458 -1.009 210 0 0
0.0608111 -0.145458 -1.009 210 0 0
0.0628546 -0.146179 -1.014 196 0 0
0.0655522 -0.148341 -1.029 173 0 0
0.0680397 -0.149927 -1.04 157 0 0
0.0698265 -0.149927 -1.04 157 0 0
0.0718578 -0.150439 -1.043 155 0 0
0.0737213 -0.150583 -1.044 155 0 0
0.0757328 -0.151016 -1.047 153 0 0
0.0776807 -0.151304 -1.049 151 0 0
0.0794081 -0.15116 -1.048 152 0 0
0.081287 -0.151304 -1.049 151 0 0
0.0831694 -0.151449 -1.05 150 0 0
0.0849743 -0.151449 -1.05 150 0 0
0.0868998 -0.151659 -1.051 149 0 0
0.0888761 -0.151948 -1.053 147 0 0
0.0908591 -0.152236 -1.055 147 0 0
0.0926734 -0.152236 -1.055 147 0 0
0.0945773 -0.152381 -1.056 147 0 0
0.0964845 -0.152525 -1.057 147 0 0
0.0987302 -0.153189 -1.061 142 0 0
0.100651 -0.153333 -1.062 141 0 0
0.102478 -0.153333 -1.062 141 0 0
0.104305 -0.153333 -1.062 141 0 0
0.106033 -0.153189 -1.061 142 0 0
0.107909 -0.153261 -1.061 142 0 0
0.109942 -0.15355 -1.063 140 0 0
0.111982 -0.153839 -1.065 139 0 0
0.114136 -0.154272 -1.068 139 0 0
0.115866 -0.154127 -1.067 139 0 0
0.11787 -0.154346 -1.068 139 0 0
0.119822 -0.154491 -1.069 138 0 0
0.121891 -0.15478 -1.071 136 0 0
0.123735 -0.15478 -1.071 136 0 0
0.125697 -0.154924 -1.072 135 0 0
0.12798 -0.155454 -1.075 135 0 0
0.132006 -0.158057 -1.093 131 0 0
-0.125677 -0.164376 -1.124 127 0 0
-0.12198 -0.162036 -1.108 127 0 0
-0.119096 -0.16072 -1.099 127 0 0
-0.114908 -0.157573 -1.078 135 0 0
-0.112843 -0.15728 -1.076 135 0 0
-0.110578 -0.156696 -1.072 135 0 0
-0.108428 -0.156257 -1.069 138 0 0
-0.106189 -0.155673 -1.065 139 0 0
-0.103915 -0.155015 -1.061 142 0 0
-0.101704 -0.154431 -1.057 147 0 0
-0.0995077 -0.153846 -1.053 147 0 0
-0.0975103 -0.153554 -1.051 149 0 0
-0.0957019 -0.153554 -1.051 149 0 0
-0.0939828 -0.1537 -1.052 148 0 0
-0.0918578 -0.153175 -1.049 151 0 0
-0.0898821 -0.152883 -1.047 153 0 0
-0.0875768 -0.152007 -1.041 156 0 0
-0.0855394 -0.151569 -1.038 160 0 0
-0.0836737 -0.151423 -1.037 162 0 0
-0.0822062 -0.152007 -1.041 156 0 0
-0.0799175 -0.151065 -1.035 166 0 0
-0.07761 -0.150043 -1.028 174 0 0
-0.0756953 -0.149751 -1.026 176 0 0
-0.0742199 -0.150335 -1.03 172 0 0
-0.0724494 -0.150335 -1.03 172 0 0
-0.0704044 -0.149751 -1.026 176 0 0
-0.068507 -0.149459 -1.024 178 0 0
-0.0665512 -0.149021 -1.021 184 0 0
-0.064762 -0.148943 -1.021 184 0 0
-0.0628844 -0.148651 -1.019 188 0 0
-0.0607738 -0.147776 -1.013 198 0 0
-0.0588586 -0.147338 -1.01 207 0 0
-0.0567275 -0.146317 -1.003 226 0 0
-0.0549494 -0.146171 -1.002 229 0 0
-0.0531748 -0.146025 -1.001 233 0 0
-0.0514037 -0.145879 -1 238 0 0
-0.0495366 -0.145442 -0.997 254 0 0
-0.0474638 -0.144347 -0.99 255 29 0
-0.0456252 -0.14391 -0.987 255 48 0
-0.0438858 -0.143764 -0.986 255 54 0
-0.0420643 -0.143327 -0.983 255 70 0
-0.0404174 -0.143472 -0.984 255 65 0
-0.0386884 -0.143327 -0.983 255 70 0
-0.0369627 -0.143181 -0.982 255 75 0
-0.0353124 -0.143327 -0.983 255 70 0
-0.0335902 -0.143181 -0.982 255 75 0
-0.031904 -0.143181 -0.982 255 75 0
-0.0302177 -0.143181 -0.982 255 75 0
-0.0285024 -0.143035 -0.981 255 79 0
-0.0268179 -0.143035 -0.981 255 79 0
-0.025159 -0.143181 -0.982 255 75 0
-0.0234613 -0.143111 -0.982 255 75 0
-0.0217758 -0.143111 -0.982 255 75 0
-0.0201109 -0.143257 -0.983 255 70 0
-0.0183862 -0.142965 -0.981 255 79 0
-0.0166855 -0.14282 -0.98 255 84 0
-0.0149882 -0.142674 -0.979 255 88 0
-0.0133079 -0.142674 -0.979 255 88 0
-0.0116395 -0.14282 -0.98 255 84 0
-0.00995748 -0.14282 -0.98 255 84 0
-0.00827547 -0.14282 -0.98 255 84 0
-0.00659347 -0.14282 -0.98 255 84 0
-0.00490646 -0.142674 -0.979 255 88 0
-0.00321958 -0.142382 -0.977 255 99 0
-0.00154431 -0.142528 -0.978 255 93 0
0.000134263 -0.142528 -0.978 255 93 0
0.00181283 -0.142528 -0.978 255 93 0
0.0034914 -0.142528 -0.978 255 93 0
0.00516469 -0.142382 -0.977 255 99 0
0.00684154 -0.142382 -0.977 255 99 0
0.00851839 -0.142382 -0.977 255 99 0
0.0101952 -0.142382 -0.977 255 99 0
0.0118964 -0.142674 -0.979 255 88 0
0.0136044 -0.142965 -0.981 255 79 0
0.0153037 -0.143111 -0.982 255 75 0
0.0169892 -0.143111 -0.982 255 75 0
0.0186936 -0.143257 -0.983 255 70 0
0.0203808 -0.143257 -0.983 255 70 0
0.0220904 -0.143403 -0.984 255 65 0
0.0237792 -0.143403 -0.984 255 65 0
0.0255323 -0.143764 -0.986 255 54 0
0.0273359 -0.144347 -0.99 255 29 0
0.0291238 -0.144785 -0.993 255 15 0
0.0307669 -0.144493 -0.991 255 24 0
0.0324686 -0.144493 -0.991 255 24 0
0.0342738 -0.14493 -0.994 255 11 0
0.0360168 -0.145076 -0.995 255 7 0
0.0376875 -0.14493 -0.994 255 11 0
0.0394736 -0.145222 -0.996 255 2 0
0.0412666 -0.145514 -0.998 249 0 0
0.0430234 -0.145659 -0.999 244 0 0
0.0447389 -0.145659 -0.999 244 0 0
0.0464543 -0.145659 -0.999 244 0 0
0.0482662 -0.145951 -1.001 233 0 0
0.0500104 -0.146025 -1.001 233 0 0
0.0518336 -0.146317 -1.003 226 0 0
0.0537169 -0.146755 -1.006 217 0 0
0.0553902 -0.146609 -1.005 219 0 0
0.0571736 -0.146755 -1.006 217 0 0
0.0590776 -0.147192 -1.009 210 0 0
0.0608714 -0.147338 -1.01 207 0 0
0.0631645 -0.148651 -1.019 188 0 0
0.0652337 -0.14938 -1.024 178 0 0
0.0682066 -0.152087 -1.042 155 0 0
0.0699977 -0.152087 -1.042 155 0 0
0.07172 -0.151941 -1.041 156 0 0
0.0737213 -0.152378 -1.044 155 0 0
0.0756605 -0.15267 -1.046 155 0 0
0.0776066 -0.152962 -1.048 152 0 0
0.0794081 -0.152962 -1.048 152 0 0
0.081287 -0.153108 -1.049 151 0 0
0.0831266 -0.153175 -1.049 151 0 0
0.0850115 -0.153321 -1.05 150 0 0
0.0868172 -0.153321 -1.05 150 0 0
0.0887917 -0.153613 -1.052 148 0 0
0.090773 -0.153905 -1.054 147 0 0
0.0927613 -0.154197 -1.056 147 0 0
0.0946308 -0.154285 -1.056 147 0 0
0.0964479 -0.154285 -1.056 147 0 0
0.0983579 -0.154431 -1.057 147 0 0
0.100651 -0.155161 -1.062 141 0 0
0.102285 -0.154869 -1.06 143 0 0
0.104207 -0.155015 -1.061 142 0 0
0.106082 -0.155088 -1.061 142 0 0
0.107807 -0.154942 -1.06 143 0 0
0.109839 -0.155234 -1.062 141 0 0
0.111667 -0.155234 -1.062 141 0 0
0.113495 -0.155234 -1.062 141 0 0
0.115488 -0.155455 -1.063 140 0 0
0.117649 -0.155894 -1.066 139 0 0
0.119485 -0.155894 -1.066 139 0 0
0.121208 -0.155748 -1.065 139 0 0
0.123273 -0.15604 -1.067 139 0 0
0.125775 -0.156869 -1.072 135 0 0
0.127265 -0.15643 -1.069 138 0 0
0.130919 -0.158625 -1.084 131 0 0
-0.127159 -0.16572 -1.12 127 0 0
-0.123888 -0.163945 -1.108 127 0 0
-0.120438 -0.161873 -1.094 131 0 0
-0.116495 -0.159062 -1.075 135 0 0
-0.114537 -0.158914 -1.074 135 0 0
-0.112528 -0.15869 -1.073 135 0 0
-0.109959 -0.157654 -1.066 139 0 0
-0.107617 -0.156915 -1.061 142 0 0
-0.105591 -0.156619 -1.059 144 0 0
-0.103572 -0.156323 -1.057 147 0 0
-0.101656 -0.156176 -1.056 147 0 0
-0.0994132 -0.155511 -1.052 148 0 0
-0.0973248 -0.155068 -1.049 151 0 0
-0.0949734 -0.154181 -1.043 155 0 0
-0.0936255 -0.15492 -1.048 152 0 0
-0.0913841 -0.154181 -1.043 155 0 0
-0.0891954 -0.153502 -1.039 158 0 0
-0.0874927 -0.15365 -1.04 157 0 0
-0.0856218 -0.153502 -1.039 158 0 0
-0.0836737 -0.153207 -1.037 162 0 0
-0.0819693 -0.153355 -1.038 160 0 0
-0.0799525 -0.152911 -1.035 166 0 0
-0.0780216 -0.152616 -1.033 169 0 0
-0.0760642 -0.152254 -1.031 171 0 0
-0.0740758 -0.151811 -1.028 174 0 0
-0.0723087 -0.151811 -1.028 174 0 0
