ply
format ascii 1.0
element vertex 1261
property float32 x
property float32 y
property float32 z
property uchar diffuse_red
property uchar diffuse_green
property uchar diffuse_blue
end_header
0.143586 -0.0612953 -0.994 187 0 0
0.145294 -0.0612953 -0.994 187 0 0
0.146931 -0.061266 -0.993 189 0 0
0.148788 -0.0613277 -0.994 187 0 0
0.150648 -0.0613894 -0.995 184 0 0
0.152205 -0.0613277 -0.994 187 0 0
0.153981 -0.0613545 -0.994 187 0 0
0.15569 -0.0613545 -0.994 187 0 0
0.157241 -0.0612928 -0.993 189 0 0
0.158879 -0.0612657 -0.992 191 0 0
0.160586 -0.0612657 -0.992 191 0 0
0.162129 -0.061204 -0.991 193 0 0
0.164076 -0.0612944 -0.992 191 0 0
0.165784 -0.0612944 -0.992 191 0 0
0.167492 -0.0612944 -0.992 191 0 0
0.169199 -0.0612944 -0.992 191 0 0
0.170989 -0.061324 -0.992 191 0 0
0.172176 -0.0611385 -0.989 197 0 0
0.174407 -0.061324 -0.992 191 0 0
0.179244 -0.0624136 -1.009 158 0 0
-0.0780258 -0.0626878 -0.993 189 0 0
-0.0759423 -0.0623721 -0.988 200 0 0
-0.0725983 -0.0609833 -0.966 252 0 0
-0.0707984 -0.060857 -0.964 255 5 0
-0.0687185 -0.0604782 -0.958 255 52 0
-0.0667629 -0.060193 -0.954 255 88 0
-0.0647217 -0.0598144 -0.948 255 173 0
-0.0633667 -0.0600668 -0.952 255 113 0
-0.0618683 -0.060193 -0.954 255 88 0
-0.0602367 -0.060193 -0.954 255 88 0
-0.0582366 -0.0598144 -0.948 255 173 0
-0.0566153 -0.0598144 -0.948 255 173 0
-0.054994 -0.0598144 -0.948 255 173 0
-0.0534035 -0.059849 -0.949 255 158 0
-0.0517268 -0.0597859 -0.948 255 173 0
-0.0500534 -0.0597229 -0.947 255 188 0
-0.0484857 -0.0597859 -0.948 255 173 0
-0.0468158 -0.0597229 -0.947 255 188 0
-0.0451493 -0.0596598 -0.946 255 203 0
-0.0435782 -0.0597229 -0.947 255 188 0
-0.0418708 -0.0595967 -0.945 255 215 0
-0.0401702 -0.0594706 -0.943 255 234 0
-0.0385173 -0.0594075 -0.942 255 244 0
-0.0369463 -0.0594706 -0.943 255 234 0
-0.0353903 -0.0595649 -0.945 255 215 0
-0.0337401 -0.0595019 -0.944 255 224 0
-0.0320592 -0.0593758 -0.942 255 244 0
-0.0304175 -0.0593128 -0.941 253 255 1
-0.028871 -0.0594389 -0.943 255 234 0
-0.0273177 -0.0595649 -0.945 255 215 0
-0.0257032 -0.0595649 -0.945 255 215 0
-0.0240377 -0.0594389 -0.943 255 234 0
-0.0224742 -0.0595649 -0.945 255 215 0
-0.0208817 -0.059628 -0.946 255 203 0
-0.0192451 -0.0595649 -0.945 255 215 0
-0.0176119 -0.0595019 -0.944 255 224 0
-0.0159652 -0.0593758 -0.942 255 244 0
-0.0143558 -0.0593758 -0.942 255 244 0
-0.012787 -0.0595649 -0.945 255 215 0
-0.0111725 -0.0595649 -0.945 255 215 0
-0.00954788 -0.0595019 -0.944 255 224 0
-0.00795188 -0.059628 -0.946 255 203 0
-0.00633564 -0.059628 -0.946 255 203 0
-0.00471941 -0.059628 -0.946 255 203 0
-0.00310318 -0.059628 -0.946 255 203 0
-0.00148853 -0.059691 -0.947 255 188 0
0.00012996 -0.0599431 -0.951 255 128 0
0.00175658 -0.0600061 -0.952 255 113 0
0.00339372 -0.0601952 -0.955 255 79 0
0.00503059 -0.0602583 -0.956 255 71 0
0.0066639 -0.0602583 -0.956 255 71 0
0.00829722 -0.0602583 -0.956 255 71 0
0.00993053 -0.0602583 -0.956 255 71 0
0.0116001 -0.0604474 -0.959 255 42 0
0.0132248 -0.0603843 -0.958 255 52 0
0.0148615 -0.0603843 -0.958 255 52 0
0.0165327 -0.0605104 -0.96 255 32 0
0.0182107 -0.0606365 -0.962 255 18 0
0.019813 -0.0605104 -0.96 255 32 0
0.0214755 -0.0605734 -0.961 255 24 0
0.0230933 -0.0605104 -0.96 255 32 0
0.0247077 -0.0604474 -0.959 255 42 0
0.0263186 -0.0603843 -0.958 255 52 0
0.0279554 -0.0603843 -0.958 255 52 0
0.0295612 -0.0603213 -0.957 255 62 0
0.0311962 -0.0603213 -0.957 255 62 0
0.0328313 -0.0603213 -0.957 255 62 0
0.0345023 -0.0603843 -0.958 255 52 0
0.0361013 -0.0603213 -0.957 255 62 0
0.0377565 -0.0603535 -0.957 255 62 0
0.0393924 -0.0603535 -0.957 255 62 0
0.0409425 -0.0602274 -0.955 255 79 0
0.0425304 -0.0601643 -0.954 255 88 0
0.0441612 -0.0601643 -0.954 255 88 0
0.045744 -0.0601012 -0.953 255 97 0
0.0472736 -0.0599751 -0.951 255 128 0
0.0488992 -0.0599751 -0.951 255 128 0
0.050578 -0.0600382 -0.952 255 113 0
0.052315 -0.0601643 -0.954 255 88 0
0.0538892 -0.0601012 -0.953 255 97 0
0.0554865 -0.0600668 -0.952 255 113 0
0.0570546 -0.0600037 -0.951 255 128 0
0.0585576 -0.0598775 -0.949 255 158 0
0.0601172 -0.0598144 -0.948 255 173 0
0.0617385 -0.0598144 -0.948 255 173 0
0.0633598 -0.0598144 -0.948 255 173 0
0.0650496 -0.0598775 -0.949 255 158 0
0.0665321 -0.0597513 -0.947 255 188 0
0.0683327 -0.0599101 -0.949 255 158 0
0.0699566 -0.0599101 -0.949 255 158 0
0.0713542 -0.0597207 -0.946 255 203 0
0.0730501 -0.0597838 -0.947 255 188 0
0.0747494 -0.0598469 -0.948 255 173 0
0.0764521 -0.0599101 -0.949 255 158 0
0.0782405 -0.0600363 -0.951 255 128 0
0.0798212 -0.0600013 -0.95 255 143 0
0.0814475 -0.0600013 -0.95 255 143 0
0.0831613 -0.0600644 -0.951 255 128 0
0.0847894 -0.0600644 -0.951 255 128 0
0.0865992 -0.0601907 -0.953 255 97 0
0.0880455 -0.0600644 -0.951 255 128 0
0.0897191 -0.0600949 -0.951 255 128 0
0.0916362 -0.0602845 -0.954 255 88 0
0.0932702 -0.0602845 -0.954 255 88 0
0.0951032 -0.0604109 -0.956 255 71 0
0.0966395 -0.0603477 -0.955 255 79 0
0.0984241 -0.0604392 -0.956 255 71 0
0.100062 -0.0604392 -0.956 255 71 0
0.101807 -0.0605024 -0.957 255 62 0
0.103555 -0.0605656 -0.958 255 52 0
0.105416 -0.060692 -0.96 255 32 0
0.107124 -0.0607274 -0.96 255 32 0
0.108996 -0.060854 -0.962 255 18 0
0.110646 -0.060854 -0.962 255 18 0
0.112062 -0.0607274 -0.96 255 32 0
0.114063 -0.0609172 -0.963 255 11 0
0.116006 -0.0610707 -0.965 255 0 0
0.117905 -0.0611972 -0.967 247 0 0
0.120058 -0.0614504 -0.971 236 0 0
0.121599 -0.0613871 -0.97 239 0 0
0.124348 -0.0619279 -0.978 221 0 0
0.126414 -0.0621178 -0.981 215 0 0
0.128228 -0.0621811 -0.982 213 0 0
0.130442 -0.0624344 -0.986 204 0 0
0.132735 -0.0627182 -0.99 195 0 0
0.134979 -0.0629716 -0.994 187 0 0
0.137236 -0.063225 -0.998 178 0 0
0.138532 -0.063035 -0.995 184 0 0
0.139888 -0.0628768 -0.992 191 0 0
0.142021 -0.063067 -0.995 184 0 0
0.143586 -0.0630036 -0.994 187 0 0
0.145294 -0.0630036 -0.994 187 0 0
0.147079 -0.0630369 -0.994 187 0 0
0.148937 -0.0631003 -0.995 184 0 0
0.150648 -0.0631003 -0.995 184 0 0
0.152271 -0.0630645 -0.994 187 0 0
0.153981 -0.0630645 -0.994 187 0 0
0.15569 -0.0630645 -0.994 187 0 0
0.156925 -0.0628742 -0.991 193 0 0
0.158719 -0.0629098 -0.991 193 0 0
0.160424 -0.0629098 -0.991 193 0 0
0.162129 -0.0629098 -0.991 193 0 0
0.164076 -0.0630028 -0.992 191 0 0
0.165617 -0.0629393 -0.991 193 0 0
0.167323 -0.0629393 -0.991 193 0 0
0.169281 -0.0630331 -0.992 191 0 0
0.171162 -0.0630966 -0.993 189 0 0
0.172698 -0.0630331 -0.992 191 0 0
0.174691 -0.0631358 -0.993 189 0 0
0.177646 -0.0635809 -1 171 0 0
-0.0776329 -0.0640633 -0.988 200 0 0
-0.0759423 -0.0640633 -0.988 200 0 0
-0.0725231 -0.062572 -0.965 255 0 0
-0.0702844 -0.0620532 -0.957 255 62 0
-0.0684316 -0.0618587 -0.954 255 88 0
-0.0666591 -0.061729 -0.952 255 113 0
-0.0647217 -0.0614363 -0.948 255 173 0
-0.0630339 -0.0613715 -0.947 255 188 0
-0.0614791 -0.0614363 -0.948 255 173 0
-0.0600473 -0.0616307 -0.951 255 128 0
-0.0582366 -0.0614363 -0.948 255 173 0
-0.0566153 -0.0614363 -0.948 255 173 0
-0.054994 -0.0614363 -0.948 255 173 0
-0.053429 -0.0615011 -0.949 255 158 0
-0.0517268 -0.061407 -0.948 255 173 0
-0.0500534 -0.0613422 -0.947 255 188 0
-0.0483323 -0.0612127 -0.945 255 215 0
-0.0467169 -0.0612127 -0.945 255 215 0
-0.0450538 -0.0611479 -0.944 255 224 0
-0.0435322 -0.0612775 -0.946 255 203 0
-0.0418265 -0.0611479 -0.944 255 224 0
-0.0402128 -0.0611479 -0.944 255 224 0
-0.03864 -0.0612127 -0.945 255 215 0
-0.0369463 -0.0610831 -0.943 255 234 0
-0.0353718 -0.0611479 -0.944 255 224 0
-0.0337581 -0.0611479 -0.944 255 224 0
-0.0320932 -0.0610505 -0.943 255 234 0
-0.0304498 -0.0609858 -0.942 255 244 0
-0.0289323 -0.06118 -0.945 255 215 0
-0.0273755 -0.0613095 -0.947 255 188 0
-0.0257032 -0.06118 -0.945 255 215 0
-0.0240887 -0.06118 -0.945 255 215 0
-0.0224979 -0.0612448 -0.946 255 203 0
-0.0208596 -0.06118 -0.945 255 215 0
-0.0192451 -0.06118 -0.945 255 215 0
-0.0176493 -0.0612448 -0.946 255 203 0
-0.0160161 -0.06118 -0.945 255 215 0
-0.0144016 -0.06118 -0.945 255 215 0
-0.012787 -0.06118 -0.945 255 215 0
-0.0111843 -0.0612448 -0.946 255 203 0
-0.00955799 -0.06118 -0.945 255 215 0
-0.00794347 -0.06118 -0.945 255 215 0
-0.00634234 -0.0613095 -0.947 255 188 0
-0.00472939 -0.0613743 -0.948 255 173 0
-0.00311631 -0.0615037 -0.95 255 143 0
-0.00149481 -0.0615685 -0.951 255 128 0
0.000130097 -0.0616332 -0.952 255 113 0
0.00176027 -0.0617627 -0.954 255 88 0
0.00338661 -0.061698 -0.953 255 97 0
0.00502533 -0.0618274 -0.955 255 79 0
0.00665693 -0.0618274 -0.955 255 79 0
0.00828854 -0.0618274 -0.955 255 79 0
0.00993053 -0.0618922 -0.956 255 71 0
0.0116001 -0.0620864 -0.959 255 42 0
0.0132386 -0.0620864 -0.959 255 42 0
0.0148615 -0.0620217 -0.958 255 52 0
0.0165327 -0.0621511 -0.96 255 32 0
0.0181728 -0.0621511 -0.96 255 32 0
0.019813 -0.0621511 -0.96 255 32 0
0.0214755 -0.0622159 -0.961 255 24 0
0.0230933 -0.0621511 -0.96 255 32 0
0.0247334 -0.0621511 -0.96 255 32 0
0.0263736 -0.0621511 -0.96 255 32 0
0.0280429 -0.0622159 -0.961 255 24 0
0.0296539 -0.0621511 -0.96 255 32 0
0.0311962 -0.0619569 -0.957 255 62 0
0.0328656 -0.0620217 -0.958 255 52 0
0.0345207 -0.0620548 -0.958 255 52 0
0.0361206 -0.06199 -0.957 255 62 0
0.0377959 -0.0620548 -0.958 255 52 0
0.0393924 -0.06199 -0.957 255 62 0
0.0408996 -0.0617957 -0.954 255 88 0
0.0425304 -0.0617957 -0.954 255 88 0
0.0442075 -0.0618604 -0.955 255 79 0
0.045744 -0.0617309 -0.953 255 97 0
0.0473233 -0.0616661 -0.952 255 113 0
0.0488992 -0.0616013 -0.951 255 128 0
0.0505249 -0.0616013 -0.951 255 128 0
0.0522054 -0.0616661 -0.952 255 113 0
0.053915 -0.0617603 -0.953 255 97 0
0.0554865 -0.0616955 -0.952 255 113 0
0.0570546 -0.0616307 -0.951 255 128 0
0.058681 -0.0616307 -0.951 255 128 0
0.0601806 -0.0615011 -0.949 255 158 0
0.0617385 -0.0614363 -0.948 255 173 0
0.0633598 -0.0614363 -0.948 255 173 0
0.0649811 -0.0614363 -0.948 255 173 0
0.0665682 -0.0614048 -0.947 255 188 0
0.0681887 -0.0614048 -0.947 255 188 0
0.0697354 -0.06134 -0.946 255 203 0
0.0714296 -0.0614048 -0.947 255 188 0
0.0729729 -0.06134 -0.946 255 203 0
0.0745917 -0.06134 -0.946 255 203 0
0.0763715 -0.0614697 -0.948 255 173 0
0.0781948 -0.0616282 -0.95 255 143 0
0.0797371 -0.0615633 -0.949 255 158 0
0.0814475 -0.0616282 -0.95 255 143 0
0.0830739 -0.0616282 -0.95 255 143 0
0.0847894 -0.0616931 -0.951 255 128 0
0.0865083 -0.0617579 -0.952 255 113 0
0.0881829 -0.0617893 -0.952 255 113 0
0.0898135 -0.0617893 -0.952 255 113 0
0.0915401 -0.0618542 -0.953 255 97 0
0.093368 -0.061984 -0.955 255 79 0
0.0950037 -0.061984 -0.955 255 79 0
0.0965383 -0.0619191 -0.954 255 88 0
0.0983212 -0.062013 -0.955 255 79 0
0.100062 -0.062078 -0.956 255 71 0
0.101701 -0.062078 -0.956 255 71 0
0.103447 -0.0621429 -0.957 255 62 0
0.105087 -0.0621429 -0.957 255 62 0
0.106901 -0.0622441 -0.958 255 52 0
0.108656 -0.0623091 -0.959 255 42 0
0.110646 -0.062504 -0.962 255 18 0
0.112295 -0.062504 -0.962 255 18 0
0.113758 -0.0624016 -0.96 255 32 0
0.116126 -0.0627916 -0.966 252 0 0
0.117295 -0.0625316 -0.962 255 18 0
0.119317 -0.0627266 -0.965 255 0 0
0.121097 -0.0627916 -0.966 252 0 0
0.123967 -0.0634119 -0.975 228 0 0
0.126027 -0.063607 -0.978 221 0 0
0.127836 -0.0636721 -0.979 219 0 0
0.130046 -0.0639322 -0.983 210 0 0
0.132333 -0.0642236 -0.987 202 0 0
0.134435 -0.0644188 -0.99 195 0 0
0.136548 -0.0646141 -0.993 189 0 0
0.138949 -0.0649394 -0.998 178 0 0
0.139747 -0.0645166 -0.991 193 0 0
0.141878 -0.064712 -0.994 187 0 0
0.143586 -0.064712 -0.994 187 0 0
0.145517 -0.0648113 -0.995 184 0 0
0.147227 -0.0648113 -0.995 184 0 0
0.148788 -0.0647462 -0.994 187 0 0
0.150496 -0.0647462 -0.994 187 0 0
0.152118 -0.0647093 -0.993 189 0 0
0.153981 -0.0647745 -0.994 187 0 0
0.155534 -0.0647093 -0.993 189 0 0
0.157172 -0.0646808 -0.992 191 0 0
0.159039 -0.064746 -0.993 189 0 0
0.160424 -0.0646156 -0.991 193 0 0
0.162129 -0.0646156 -0.991 193 0 0
0.163911 -0.0646458 -0.991 193 0 0
0.165617 -0.0646458 -0.991 193 0 0
0.167492 -0.0647111 -0.992 191 0 0
0.16894 -0.0646117 -0.99 195 0 0
0.170817 -0.064677 -0.991 193 0 0
0.17235 -0.0646117 -0.99 195 0 0
0.173987 -0.0645866 -0.989 197 0 0
0.176224 -0.0647825 -0.992 191 0 0
-0.0768471 -0.065089 -0.978 221 0 0
-0.0744819 -0.06449 -0.969 241 0 0
-0.0722225 -0.0639576 -0.961 255 24 0
-0.0701375 -0.0635583 -0.955 255 79 0
-0.0682881 -0.0633586 -0.952 255 113 0
-0.0665891 -0.0632921 -0.951 255 128 0
-0.0648935 -0.0632255 -0.95 255 143 0
-0.0630339 -0.0629916 -0.947 255 188 0
-0.0616737 -0.0632577 -0.951 255 128 0
-0.0600473 -0.0632577 -0.951 255 128 0
-0.0581751 -0.0629916 -0.947 255 188 0
-0.0566153 -0.0630582 -0.948 255 173 0
-0.054994 -0.0630582 -0.948 255 173 0
-0.053429 -0.0631247 -0.949 255 158 0
-0.051806 -0.0631247 -0.949 255 158 0
-0.0500534 -0.0629616 -0.947 255 188 0
-0.0483834 -0.0628951 -0.946 255 203 0
-0.0467664 -0.0628951 -0.946 255 203 0
-0.0451493 -0.0628951 -0.946 255 203 0
-0.0434861 -0.0628286 -0.945 255 215 0
-0.0419151 -0.0628951 -0.946 255 203 0
-0.040298 -0.0628951 -0.946 255 203 0
-0.0386809 -0.0628951 -0.946 255 203 0
-0.0369854 -0.0627622 -0.944 255 224 0
-0.0353718 -0.0627622 -0.944 255 224 0
-0.0337581 -0.0627622 -0.944 255 224 0
-0.0321785 -0.0628286 -0.945 255 215 0
-0.0305631 -0.0628286 -0.945 255 215 0
-0.0289323 -0.0627951 -0.945 255 215 0
-0.0273466 -0.0628616 -0.946 255 203 0
-0.0257032 -0.0627951 -0.945 255 215 0
-0.0241142 -0.0628616 -0.946 255 203 0
-0.0225217 -0.062928 -0.947 255 188 0
-0.0208596 -0.0627951 -0.945 255 215 0
-0.0192655 -0.0628616 -0.946 255 203 0
-0.0176493 -0.0628616 -0.946 255 203 0
-0.01605 -0.062928 -0.947 255 188 0
-0.0144016 -0.0627951 -0.945 255 215 0
-0.012787 -0.0627951 -0.945 255 215 0
-0.0111962 -0.062928 -0.947 255 188 0
-0.00958833 -0.0629945 -0.948 255 173 0
-0.00796028 -0.062928 -0.947 255 188 0
-0.00634904 -0.0629945 -0.948 255 173 0
-0.00473937 -0.0631274 -0.95 255 143 0
-0.00312287 -0.0632603 -0.952 255 113 0
-0.00149638 -0.0632603 -0.952 255 113 0
0.00013037 -0.0633932 -0.954 255 88 0
0.00176027 -0.0633932 -0.954 255 88 0
0.00339017 -0.0633932 -0.954 255 88 0
0.00502533 -0.0634596 -0.955 255 79 0
0.0066639 -0.0635261 -0.956 255 71 0
0.00828854 -0.0634596 -0.955 255 79 0
0.00992015 -0.0634596 -0.955 255 79 0
0.0115759 -0.0635925 -0.957 255 62 0
0.0132524 -0.0637919 -0.96 255 32 0
0.0148925 -0.0637919 -0.96 255 32 0
0.0165327 -0.0637919 -0.96 255 32 0
0.0181728 -0.0637919 -0.96 255 32 0
0.019813 -0.0637919 -0.96 255 32 0
0.0214755 -0.0638583 -0.961 255 24 0
0.0231173 -0.0638583 -0.961 255 24 0
0.0247334 -0.0637919 -0.96 255 32 0
0.0264285 -0.0639248 -0.962 255 18 0
0.0280429 -0.0638583 -0.961 255 24 0
0.0295921 -0.063659 -0.958 255 52 0
0.0312455 -0.063693 -0.958 255 52 0
0.0328831 -0.063693 -0.958 255 52 0
0.0344847 -0.0636265 -0.957 255 62 0
0.0361206 -0.0636265 -0.957 255 62 0
0.0377565 -0.0636265 -0.957 255 62 0
0.0393512 -0.06356 -0.956 255 71 0
0.0409425 -0.0634935 -0.955 255 79 0
0.042575 -0.0634935 -0.955 255 79 0
0.0442538 -0.06356 -0.956 255 71 0
0.045792 -0.063427 -0.954 255 88 0
0.047373 -0.0633605 -0.953 255 97 0
0.0489507 -0.063294 -0.952 255 113 0
0.0506021 -0.0633242 -0.952 255 113 0
0.0522303 -0.0633242 -0.952 255 113 0
0.0538018 -0.0632577 -0.951 255 128 0
0.0554282 -0.0632577 -0.951 255 128 0
0.0570546 -0.0632577 -0.951 255 128 0
0.0586193 -0.0631912 -0.95 255 143 0
0.060244 -0.0631912 -0.95 255 143 0
0.0618036 -0.0631247 -0.949 255 158 0
0.0633598 -0.0630582 -0.948 255 173 0
0.0649478 -0.0630259 -0.947 255 188 0
0.0665682 -0.0630259 -0.947 255 188 0
0.0681167 -0.0629593 -0.946 255 203 0
0.0696617 -0.0628928 -0.945 255 215 0
0.0713542 -0.0629593 -0.946 255 203 0
0.0730501 -0.0630259 -0.947 255 188 0
0.0745917 -0.0629593 -0.946 255 203 0
0.0764073 -0.0631219 -0.948 255 173 0
0.0781948 -0.0632551 -0.95 255 143 0
0.0797371 -0.0631885 -0.949 255 158 0
0.0814475 -0.0632551 -0.95 255 143 0
0.0831613 -0.0633217 -0.951 255 128 0
0.0847002 -0.0632551 -0.95 255 143 0
0.0862795 -0.0632206 -0.949 255 158 0
0.0879976 -0.0632873 -0.95 255 143 0
0.0897191 -0.0633539 -0.951 255 128 0
0.0916362 -0.0635537 -0.954 255 88 0
0.093368 -0.0636204 -0.955 255 79 0
0.0949042 -0.0635537 -0.954 255 88 0
0.0965834 -0.0635835 -0.954 255 88 0
0.0982182 -0.0635835 -0.954 255 88 0
0.100062 -0.0637168 -0.956 255 71 0
0.101807 -0.0637834 -0.957 255 62 0
0.103447 -0.0637834 -0.957 255 62 0
0.105258 -0.0638873 -0.958 255 52 0
0.106901 -0.0638873 -0.958 255 52 0
0.108543 -0.0638873 -0.958 255 52 0
0.110416 -0.0640207 -0.96 255 32 0
0.112412 -0.0642207 -0.963 255 11 0
0.113877 -0.0641157 -0.961 255 24 0
0.115405 -0.0640489 -0.96 255 32 0
0.117295 -0.0641824 -0.962 255 18 0
0.11944 -0.0644493 -0.966 252 0 0
0.12129 -0.0645519 -0.967 247 0 0
0.12295 -0.0645519 -0.967 247 0 0
0.126027 -0.0652862 -0.978 221 0 0
0.127575 -0.0652194 -0.977 223 0 0
0.129579 -0.0653848 -0.979 219 0 0
0.131663 -0.0655851 -0.982 213 0 0
0.134164 -0.0659859 -0.988 200 0 0
0.136135 -0.0661194 -0.99 195 0 0
0.138045 -0.0662198 -0.991 193 0 0
0.140452 -0.0665539 -0.996 182 0 0
0.141878 -0.0664203 -0.994 187 0 0
0.143586 -0.0664203 -0.994 187 0 0
0.144932 -0.0662548 -0.991 193 0 0
0.147079 -0.0664554 -0.994 187 0 0
0.148937 -0.0665222 -0.995 184 0 0
0.150411 -0.0664176 -0.993 189 0 0
0.152118 -0.0664176 -0.993 189 0 0
0.153981 -0.0664845 -0.994 187 0 0
0.155534 -0.0664176 -0.993 189 0 0
0.157172 -0.0663883 -0.992 191 0 0
0.158879 -0.0663883 -0.992 191 0 0
0.160424 -0.0663214 -0.991 193 0 0
0.162205 -0.0663524 -0.991 193 0 0
0.16358 -0.0662185 -0.989 197 0 0
0.16545 -0.0662855 -0.99 195 0 0
0.167235 -0.0663174 -0.99 195 0 0
0.16911 -0.0663844 -0.991 193 0 0
0.170817 -0.0663844 -0.991 193 0 0
0.172524 -0.0663844 -0.991 193 0 0
0.174515 -0.0664927 -0.992 191 0 0
0.176935 -0.0667608 -0.996 182 0 0
0.176678 -0.0660235 -0.985 206 0 0
-0.0765328 -0.0664901 -0.974 230 0 0
-0.0742513 -0.0659439 -0.966 252 0 0
-0.0721474 -0.0655343 -0.96 255 32 0
-0.0699906 -0.0650565 -0.953 255 97 0
-0.0682881 -0.0649882 -0.952 255 113 0
-0.0665191 -0.0648517 -0.95 255 143 0
-0.0647569 -0.0647152 -0.948 255 173 0
-0.0634011 -0.0649882 -0.952 255 113 0
-0.061998 -0.0652259 -0.956 255 71 0
-0.0601736 -0.0650212 -0.953 255 97 0
-0.0581751 -0.0646118 -0.947 255 188 0
-0.056675 -0.0647483 -0.949 255 158 0
-0.055052 -0.0647483 -0.949 255 158 0
-0.053429 -0.0647483 -0.949 255 158 0
-0.051806 -0.0647483 -0.949 255 158 0
-0.0501301 -0.06468 -0.948 255 173 0
-0.0484577 -0.0646118 -0.947 255 188 0
-0.0467664 -0.0645128 -0.946 255 203 0
-0.0451015 -0.0644446 -0.945 255 215 0
-0.0434861 -0.0644446 -0.945 255 215 0
-0.0418708 -0.0644446 -0.945 255 215 0
-0.040298 -0.0645128 -0.946 255 203 0
-0.0387218 -0.064581 -0.947 255 188 0
-0.037103 -0.064581 -0.947 255 188 0
-0.0354842 -0.064581 -0.947 255 188 0
-0.0338654 -0.064581 -0.947 255 188 0
-0.0322466 -0.064581 -0.947 255 188 0
-0.0306601 -0.0646492 -0.948 255 173 0
-0.029009 -0.064581 -0.947 255 188 0
-0.0274191 -0.0646492 -0.948 255 173 0
-0.0257576 -0.0645465 -0.947 255 188 0
-0.0241397 -0.0645465 -0.947 255 188 0
-0.0225455 -0.0646147 -0.948 255 173 0
-0.0208817 -0.0644784 -0.946 255 203 0
-0.0192859 -0.0645465 -0.947 255 188 0
-0.0176866 -0.0646147 -0.948 255 173 0
-0.0160669 -0.0646147 -0.948 255 173 0
-0.014432 -0.0645465 -0.947 255 188 0
-0.0128006 -0.0644784 -0.946 255 203 0
-0.011208 -0.0646147 -0.948 255 173 0
-0.00958833 -0.0646147 -0.948 255 173 0
-0.00797709 -0.0646829 -0.949 255 158 0
-0.00636243 -0.064751 -0.95 255 143 0
-0.00475434 -0.0649555 -0.953 255 97 0
-0.00312943 -0.0650237 -0.954 255 88 0
-0.00149796 -0.0649555 -0.953 255 97 0
0.000130233 -0.0649555 -0.953 255 97 0
0.00176765 -0.0652963 -0.958 255 52 0
0.00340083 -0.0652281 -0.957 255 62 0
0.00502533 -0.0650918 -0.955 255 79 0
0.00665693 -0.0650918 -0.955 255 79 0
0.00828854 -0.0650918 -0.955 255 79 0
0.00992015 -0.0650918 -0.955 255 79 0
0.011588 -0.0652963 -0.958 255 52 0
0.0132662 -0.0655008 -0.961 255 24 0
0.0148925 -0.0654326 -0.96 255 32 0
0.0165843 -0.0656371 -0.963 255 11 0
0.0181918 -0.0655008 -0.961 255 24 0
0.0197923 -0.0653645 -0.959 255 42 0
0.0214755 -0.0655008 -0.961 255 24 0
0.0231414 -0.0655689 -0.962 255 18 0
0.024785 -0.0655689 -0.962 255 18 0
0.026456 -0.0656371 -0.963 255 11 0
0.0281163 -0.0656721 -0.963 255 11 0
0.0296079 -0.0653312 -0.958 255 52 0
0.0312781 -0.0653993 -0.959 255 42 0
0.0328831 -0.0653312 -0.958 255 52 0
0.0345207 -0.0653312 -0.958 255 52 0
0.0361206 -0.065263 -0.957 255 62 0
0.0377565 -0.065263 -0.957 255 62 0
0.0393512 -0.0651948 -0.956 255 71 0
0.0408996 -0.0650584 -0.954 255 88 0
0.0425304 -0.0650584 -0.954 255 88 0
0.0441612 -0.0650584 -0.954 255 88 0
0.045744 -0.0649902 -0.953 255 97 0
0.0473233 -0.064922 -0.952 255 113 0
0.0490254 -0.0650212 -0.953 255 97 0
0.0506553 -0.0650212 -0.953 255 97 0
0.0522303 -0.0649529 -0.952 255 113 0
0.0537452 -0.0648165 -0.95 255 143 0
0.0554282 -0.0648847 -0.951 255 128 0
0.0570546 -0.0648847 -0.951 255 128 0
0.0585576 -0.0647483 -0.949 255 158 0
0.0601806 -0.0647483 -0.949 255 158 0
0.0618688 -0.0648165 -0.95 255 143 0
0.0635279 -0.0648517 -0.95 255 143 0
0.0650164 -0.0647152 -0.948 255 173 0
0.066498 -0.0645786 -0.946 255 203 0
0.0681887 -0.0646469 -0.947 255 188 0
0.0697354 -0.0645786 -0.946 255 203 0
0.0714296 -0.0646469 -0.947 255 188 0
0.0730501 -0.0646469 -0.947 255 188 0
0.0747055 -0.0646772 -0.947 255 188 0
0.0762461 -0.0646089 -0.946 255 203 0
0.0779479 -0.0646772 -0.947 255 188 0
0.0796531 -0.0647455 -0.948 255 173 0
0.0814475 -0.0648821 -0.95 255 143 0
0.0830739 -0.0648821 -0.95 255 143 0
0.0846111 -0.0648138 -0.949 255 158 0
0.0862795 -0.0648467 -0.949 255 158 0
0.0878124 -0.0647784 -0.948 255 173 0
0.0895305 -0.0648467 -0.949 255 158 0
0.0917322 -0.0652567 -0.955 255 79 0
0.093368 -0.0652567 -0.955 255 79 0
0.0949486 -0.0652189 -0.954 255 88 0
0.0966847 -0.0652872 -0.955 255 79 0
0.0984241 -0.0653556 -0.956 255 71 0
0.100062 -0.0653556 -0.956 255 71 0
0.101807 -0.065424 -0.957 255 62 0
0.103615 -0.0655305 -0.958 255 52 0
0.105148 -0.0654621 -0.957 255 62 0
0.106789 -0.0654621 -0.957 255 62 0
0.10843 -0.0654621 -0.957 255 62 0
0.110301 -0.0655989 -0.959 255 42 0
0.112228 -0.0657647 -0.961 255 24 0
0.114114 -0.0659016 -0.963 255 11 0
0.115525 -0.0657647 -0.961 255 24 0
0.117295 -0.0658332 -0.962 255 18 0
0.119069 -0.0659016 -0.963 255 11 0
0.12129 -0.0662122 -0.967 247 0 0
0.12295 -0.0662122 -0.967 247 0 0
0.125254 -0.0665545 -0.972 234 0 0
0.127575 -0.0668969 -0.977 223 0 0
0.129712 -0.067135 -0.98 217 0 0
0.131529 -0.0672035 -0.981 215 0 0
0.133485 -0.0673405 -0.983 210 0 0
0.135998 -0.0677515 -0.989 197 0 0
0.138184 -0.0679916 -0.992 191 0 0
0.14017 -0.0681286 -0.994 187 0 0
0.141593 -0.0679916 -0.992 191 0 0
0.143373 -0.0680275 -0.992 191 0 0
0.144932 -0.0679589 -0.991 193 0 0
0.146931 -0.0680961 -0.993 189 0 0
0.148788 -0.0681646 -0.994 187 0 0
0.150411 -0.0681259 -0.993 189 0 0
0.152118 -0.0681259 -0.993 189 0 0
0.153826 -0.0681259 -0.993 189 0 0
0.155622 -0.0681645 -0.993 189 0 0
0.157172 -0.0680958 -0.992 191 0 0
0.158719 -0.0680272 -0.991 193 0 0
0.160262 -0.0679585 -0.99 195 0 0
0.162041 -0.0679904 -0.99 195 0 0
0.163746 -0.0679904 -0.99 195 0 0
0.165283 -0.0679217 -0.989 197 0 0
0.167235 -0.0680231 -0.99 195 0 0
0.16894 -0.0680231 -0.99 195 0 0
0.170645 -0.0680231 -0.99 195 0 0
0.172283 -0.0679966 -0.989 197 0 0
0.173811 -0.0679279 -0.988 200 0 0
0.175514 -0.0679279 -0.988 200 0 0
0.178384 -0.0683754 -0.994 187 0 0
-0.0765687 -0.0681892 -0.974 230 0 0
-0.0738669 -0.0672476 -0.961 255 24 0
-0.0721474 -0.0671776 -0.96 255 32 0
-0.0701375 -0.0668277 -0.955 255 79 0
-0.0682881 -0.0666178 -0.952 255 113 0
-0.066309 -0.0662679 -0.947 255 188 0
-0.0648935 -0.0664779 -0.95 255 143 0
-0.0630681 -0.0662679 -0.947 255 188 0
-0.0622912 -0.0671776 -0.96 255 32 0
-0.0602367 -0.0667215 -0.954 255 88 0
-0.0582366 -0.0663019 -0.948 255 173 0
-0.056675 -0.0663718 -0.949 255 158 0
-0.055052 -0.0663718 -0.949 255 158 0
-0.053429 -0.0663718 -0.949 255 158 0
-0.051806 -0.0663718 -0.949 255 158 0
-0.0501301 -0.0663019 -0.948 255 173 0
-0.0485089 -0.0663019 -0.948 255 173 0
-0.0468381 -0.066232 -0.947 255 188 0
-0.0451015 -0.0660606 -0.945 255 215 0
-0.0434861 -0.0660606 -0.945 255 215 0
-0.0419151 -0.0661305 -0.946 255 203 0
-0.0403406 -0.0662004 -0.947 255 188 0
-0.0387218 -0.0662004 -0.947 255 188 0
-0.0371422 -0.0662703 -0.948 255 173 0
-0.0355966 -0.0664101 -0.95 255 143 0
-0.0339011 -0.0662703 -0.948 255 173 0
-0.0323147 -0.0663402 -0.949 255 158 0
-0.0307248 -0.0664101 -0.95 255 143 0
-0.0290702 -0.0663402 -0.949 255 158 0
-0.027448 -0.0663402 -0.949 255 158 0
-0.0258258 -0.0663402 -0.949 255 158 0
-0.0241781 -0.0662703 -0.948 255 173 0
-0.0225575 -0.0662703 -0.948 255 173 0
-0.0209479 -0.0663048 -0.949 255 158 0
-0.0193266 -0.0663048 -0.949 255 158 0
-0.0176866 -0.0662349 -0.948 255 173 0
-0.0160839 -0.0663048 -0.949 255 158 0
-0.0144473 -0.0662349 -0.948 255 173 0
-0.0128276 -0.0662349 -0.948 255 173 0
-0.011208 -0.0662349 -0.948 255 173 0
-0.00958833 -0.0662349 -0.948 255 173 0
-0.00797709 -0.0663048 -0.949 255 158 0
-0.00636243 -0.0663747 -0.95 255 143 0
-0.00475434 -0.0665843 -0.953 255 97 0
-0.00312943 -0.0666541 -0.954 255 88 0
-0.00149953 -0.0666541 -0.954 255 88 0
0.00013078 -0.0668637 -0.957 255 62 0
0.00176949 -0.0670035 -0.959 255 42 0
0.00340438 -0.0669336 -0.958 255 52 0
0.00503059 -0.0667939 -0.956 255 71 0
0.00667088 -0.0668637 -0.957 255 62 0
0.00831458 -0.0669336 -0.958 255 52 0
0.0099617 -0.0670035 -0.959 255 42 0
0.0116122 -0.0670733 -0.96 255 32 0
0.0133076 -0.0673528 -0.964 255 5 0
0.0149391 -0.067283 -0.963 255 11 0
0.0165843 -0.067283 -0.963 255 11 0
0.0182296 -0.067283 -0.963 255 11 0
0.0198336 -0.0671432 -0.961 255 24 0
0.0214531 -0.0670733 -0.96 255 32 0
0.0231537 -0.067249 -0.962 255 18 0
0.0247982 -0.067249 -0.962 255 18 0
0.0264976 -0.0673888 -0.964 255 5 0
0.0281455 -0.0673888 -0.964 255 5 0
0.0296697 -0.0671092 -0.96 255 32 0
0.0313107 -0.0671092 -0.96 255 32 0
0.0328488 -0.0668994 -0.957 255 62 0
0.0344847 -0.0668994 -0.957 255 62 0
0.0361206 -0.0668994 -0.957 255 62 0
0.0377565 -0.0668994 -0.957 255 62 0
0.0392689 -0.0666897 -0.954 255 88 0
0.0408996 -0.0666897 -0.954 255 88 0
0.0424858 -0.0666198 -0.953 255 97 0
0.0441149 -0.0666198 -0.953 255 97 0
0.045696 -0.0665499 -0.952 255 113 0
0.0473459 -0.0665817 -0.952 255 113 0
0.0490254 -0.0666516 -0.953 255 97 0
0.0506553 -0.0666516 -0.953 255 97 0
0.0522303 -0.0665817 -0.952 255 113 0
0.0538018 -0.0665117 -0.951 255 128 0
0.0554282 -0.0665117 -0.951 255 128 0
0.0569946 -0.0664418 -0.95 255 143 0
0.0584959 -0.0663019 -0.948 255 173 0
0.0601172 -0.0663019 -0.948 255 173 0
0.0619024 -0.0664779 -0.95 255 143 0
0.0634611 -0.0664079 -0.949 255 158 0
0.0649478 -0.0662679 -0.947 255 188 0
0.0665682 -0.0662679 -0.947 255 188 0
0.0681167 -0.066198 -0.946 255 203 0
0.0697354 -0.066198 -0.946 255 203 0
0.0714296 -0.0662679 -0.947 255 188 0
0.0730843 -0.066299 -0.947 255 188 0
0.0747844 -0.066369 -0.948 255 173 0
0.0762461 -0.0662289 -0.946 255 203 0
0.0777833 -0.0661589 -0.945 255 215 0
0.0794851 -0.0662289 -0.946 255 203 0
0.0814475 -0.066509 -0.95 255 143 0
0.0831613 -0.066579 -0.951 255 128 0
0.0846541 -0.0664727 -0.949 255 158 0
0.0862795 -0.0664727 -0.949 255 158 0
0.087905 -0.0664727 -0.949 255 158 0
0.0895305 -0.0664727 -0.949 255 158 0
0.0917322 -0.066893 -0.955 255 79 0
0.0932702 -0.066823 -0.954 255 88 0
0.0949486 -0.0668542 -0.954 255 88 0
0.0967859 -0.0669944 -0.956 255 71 0
0.0985271 -0.0670645 -0.957 255 62 0
0.100167 -0.0670645 -0.957 255 62 0
0.101807 -0.0670645 -0.957 255 62 0
0.103507 -0.0671036 -0.957 255 62 0
0.105258 -0.0671737 -0.958 255 52 0
0.106901 -0.0671737 -0.958 255 52 0
0.10843 -0.0671036 -0.957 255 62 0
0.110416 -0.0673139 -0.96 255 32 0
0.112228 -0.0674138 -0.961 255 24 0
0.113995 -0.0674839 -0.962 255 18 0
0.115525 -0.0674138 -0.961 255 24 0
0.117174 -0.0674138 -0.961 255 24 0
0.119136 -0.0675917 -0.963 255 11 0
0.120914 -0.0676619 -0.964 255 5 0
0.122568 -0.0676619 -0.964 255 5 0
0.124481 -0.0678023 -0.966 252 0 0
0.127506 -0.0685375 -0.976 226 0 0
0.129447 -0.068678 -0.978 221 0 0
0.131261 -0.0687482 -0.979 219 0 0
0.133213 -0.0688886 -0.981 215 0 0
0.135654 -0.0692749 -0.986 204 0 0
0.137766 -0.0694857 -0.989 197 0 0
0.139888 -0.0696965 -0.992 191 0 0
0.141878 -0.069837 -0.994 187 0 0
0.143517 -0.0698036 -0.993 189 0 0
0.145078 -0.0697333 -0.992 191 0 0
0.146783 -0.0697333 -0.992 191 0 0
0.148788 -0.0698739 -0.994 187 0 0
0.150411 -0.0698342 -0.993 189 0 0
0.151965 -0.0697638 -0.992 191 0 0
0.153671 -0.0697638 -0.992 191 0 0
0.155308 -0.069733 -0.991 193 0 0
0.157013 -0.069733 -0.991 193 0 0
0.158558 -0.0696626 -0.99 195 0 0
0.160337 -0.0696952 -0.99 195 0 0
0.162041 -0.0696952 -0.99 195 0 0
0.163746 -0.0696952 -0.99 195 0 0
0.16545 -0.0696952 -0.99 195 0 0
0.166897 -0.0695879 -0.988 200 0 0
0.168598 -0.0695879 -0.988 200 0 0
0.170472 -0.0696584 -0.989 197 0 0
0.172108 -0.0696312 -0.988 200 0 0
0.173987 -0.0697016 -0.989 197 0 0
0.175692 -0.0697016 -0.989 197 0 0
0.177666 -0.0698079 -0.99 195 0 0
0.182272 -0.0709361 -1.006 162 0 0
-0.07649 -0.0697855 -0.973 232 0 0
-0.0737477 -0.0687814 -0.959 255 42 0
-0.0720722 -0.0687492 -0.959 255 42 0
-0.0702844 -0.0686059 -0.957 255 62 0
-0.0682164 -0.0681757 -0.951 255 128 0
-0.066309 -0.067889 -0.947 255 188 0
-0.0649618 -0.0681757 -0.951 255 128 0
-0.0630015 -0.0678173 -0.946 255 203 0
-0.0613179 -0.0677456 -0.945 255 215 0
-0.0600799 -0.0681757 -0.951 255 128 0
-0.0583594 -0.0680671 -0.95 255 143 0
-0.056675 -0.0679954 -0.949 255 158 0
-0.05511 -0.0680671 -0.95 255 143 0
-0.0534853 -0.0680671 -0.95 255 143 0
-0.051806 -0.0679954 -0.949 255 158 0
-0.050183 -0.0679954 -0.949 255 158 0
-0.04856 -0.0679954 -0.949 255 158 0
-0.046937 -0.0679954 -0.949 255 158 0
-0.0451708 -0.0677805 -0.946 255 203 0
-0.0435529 -0.0677805 -0.946 255 203 0
-0.042048 -0.067963 -0.949 255 158 0
-0.0404258 -0.067963 -0.949 255 158 0
-0.0387627 -0.0678914 -0.948 255 173 0
-0.0372205 -0.0680346 -0.95 255 143 0
-0.0356715 -0.0681778 -0.952 255 113 0
-0.0340084 -0.0681062 -0.951 255 128 0
-0.0323828 -0.0681062 -0.951 255 128 0
-0.0307571 -0.0681062 -0.951 255 128 0
-0.0291009 -0.0680346 -0.95 255 143 0
-0.0274769 -0.0680346 -0.95 255 143 0
-0.0258258 -0.067963 -0.949 255 158 0
-0.0242036 -0.067963 -0.949 255 158 0
-0.0225813 -0.067963 -0.949 255 158 0
-0.0209591 -0.067963 -0.949 255 158 0
-0.0193165 -0.0678914 -0.948 255 173 0
-0.017696 -0.0678914 -0.948 255 173 0
-0.0160925 -0.067963 -0.949 255 158 0
-0.0144625 -0.0679267 -0.949 255 158 0
-0.0128547 -0.0679983 -0.95 255 143 0
-0.0112198 -0.0679267 -0.949 255 158 0
-0.00959845 -0.0679267 -0.949 255 158 0
-0.0079939 -0.0680699 -0.951 255 128 0
-0.00638253 -0.0682131 -0.953 255 97 0
-0.00475933 -0.0682846 -0.954 255 88 0
-0.00313271 -0.0683562 -0.955 255 79 0
-0.00150582 -0.0685709 -0.958 255 52 0
0.000130917 -0.0685709 -0.958 255 52 0
0.00176949 -0.0686425 -0.959 255 42 0
0.00341149 -0.0687141 -0.96 255 32 0
0.00505164 -0.0687141 -0.96 255 32 0
0.00669179 -0.0687141 -0.96 255 32 0
0.00834062 -0.0687857 -0.961 255 24 0
0.00998247 -0.0687857 -0.961 255 24 0
0.0116364 -0.0688572 -0.962 255 18 0
0.0133076 -0.0690004 -0.964 255 5 0
0.0149546 -0.0690004 -0.964 255 5 0
0.0166277 -0.0691088 -0.965 255 0 0
0.0182772 -0.0691088 -0.965 255 0 0
0.0199062 -0.0690372 -0.964 255 5 0
0.0215093 -0.068894 -0.962 255 18 0
0.0231778 -0.0689656 -0.963 255 11 0
0.0248497 -0.0690372 -0.964 255 5 0
0.0264701 -0.0689656 -0.963 255 11 0
0.0280579 -0.0688224 -0.961 255 24 0
0.0296697 -0.0687508 -0.96 255 32 0
0.0312781 -0.0686792 -0.959 255 42 0
0.0328831 -0.0686075 -0.958 255 52 0
0.0344847 -0.0685359 -0.957 255 62 0
0.0361206 -0.0685359 -0.957 255 62 0
0.0377565 -0.0685359 -0.957 255 62 0
0.03931 -0.0683927 -0.955 255 79 0
0.0409425 -0.0683927 -0.955 255 79 0
0.042575 -0.0683927 -0.955 255 79 0
0.0441822 -0.0683537 -0.954 255 88 0
0.0457658 -0.068282 -0.953 255 97 0
0.0473459 -0.0682104 -0.952 255 113 0
0.048974 -0.0682104 -0.952 255 113 0
0.0506021 -0.0682104 -0.952 255 113 0
0.0521205 -0.0680671 -0.95 255 143 0
0.0537452 -0.0680671 -0.95 255 143 0
0.0553699 -0.0680671 -0.95 255 143 0
0.0569346 -0.0679954 -0.949 255 158 0
0.0584959 -0.0679238 -0.948 255 173 0
0.0602133 -0.0680324 -0.949 255 158 0
0.0618372 -0.0680324 -0.949 255 158 0
0.0634611 -0.0680324 -0.949 255 158 0
0.0649478 -0.067889 -0.947 255 188 0
0.0665682 -0.067889 -0.947 255 188 0
0.0681887 -0.067889 -0.947 255 188 0
0.0698092 -0.067889 -0.947 255 188 0
0.071505 -0.0679607 -0.948 255 173 0
0.0730843 -0.0679208 -0.947 255 188 0
0.0747055 -0.0679208 -0.947 255 188 0
0.0763267 -0.0679208 -0.947 255 188 0
0.0779479 -0.0679208 -0.947 255 188 0
0.0794851 -0.067849 -0.946 255 203 0
0.0811903 -0.0679208 -0.947 255 188 0
0.0831161 -0.0681705 -0.95 255 143 0
0.0847433 -0.0681705 -0.95 255 143 0
0.0863704 -0.0681705 -0.95 255 143 0
0.0879976 -0.0681705 -0.95 255 143 0
0.0898135 -0.0683141 -0.952 255 113 0
0.0915401 -0.0683858 -0.953 255 97 0
0.093216 -0.0684178 -0.953 255 97 0
0.0948491 -0.0684178 -0.953 255 97 0
0.0966847 -0.0685614 -0.955 255 79 0
0.0984241 -0.0686332 -0.956 255 71 0
0.0999577 -0.0685614 -0.955 255 79 0
0.10176 -0.0686732 -0.956 255 71 0
0.103615 -0.0688169 -0.958 255 52 0
0.105258 -0.0688169 -0.958 255 52 0
0.106677 -0.0686732 -0.956 255 71 0
0.10843 -0.0687451 -0.957 255 62 0
0.110349 -0.0689191 -0.959 255 42 0
0.112228 -0.0690629 -0.961 255 24 0
0.113758 -0.068991 -0.96 255 32 0
0.115405 -0.068991 -0.96 255 32 0
0.117361 -0.0691732 -0.962 255 18 0
0.118888 -0.0691013 -0.961 255 24 0
0.120287 -0.0689575 -0.959 255 42 0
0.123077 -0.0696047 -0.968 243 0 0
0.12461 -0.0695328 -0.967 247 0 0
0.126853 -0.0698544 -0.971 236 0 0
0.129315 -0.070286 -0.977 223 0 0
0.131261 -0.0704299 -0.979 219 0 0
0.133213 -0.0705738 -0.981 215 0 0
0.135379 -0.0708255 -0.984 208 0 0
0.137488 -0.0710415 -0.987 202 0 0
0.139606 -0.0712574 -0.99 195 0 0
0.141525 -0.0713671 -0.991 193 0 0
0.143228 -0.0713671 -0.991 193 0 0
0.144785 -0.0712951 -0.99 195 0 0
0.146487 -0.0712951 -0.99 195 0 0
0.148403 -0.0713983 -0.991 193 0 0
0.150411 -0.0715424 -0.993 189 0 0
0.151812 -0.0713983 -0.991 193 0 0
0.153516 -0.0713983 -0.991 193 0 0
0.155152 -0.0713667 -0.99 195 0 0
0.156697 -0.0712946 -0.989 197 0 0
0.158558 -0.0713667 -0.99 195 0 0
0.160337 -0.0714001 -0.99 195 0 0
0.161878 -0.071328 -0.989 197 0 0
0.16358 -0.071328 -0.989 197 0 0
0.165362 -0.0713624 -0.989 197 0 0
0.166897 -0.0712902 -0.988 200 0 0
0.168598 -0.0712902 -0.988 200 0 0
0.170061 -0.0711901 -0.986 204 0 0
0.172108 -0.0713345 -0.988 200 0 0
0.173811 -0.0713345 -0.988 200 0 0
0.175248 -0.0712265 -0.986 204 0 0
0.176589 -0.0710821 -0.984 208 0 0
0.180098 -0.0718044 -0.994 187 0 0
-0.0761756 -0.0711581 -0.969 241 0 0
-0.0740553 -0.0707175 -0.963 255 11 0
-0.0719556 -0.0702769 -0.957 255 62 0
-0.0703578 -0.0703174 -0.958 255 52 0
-0.0684316 -0.0700238 -0.954 255 88 0
-0.0664491 -0.0696568 -0.949 255 158 0
-0.0650301 -0.069877 -0.952 255 113 0
-0.0632013 -0.0696568 -0.949 255 158 0
-0.0613828 -0.0694366 -0.946 255 203 0
-0.0600799 -0.0698036 -0.951 255 128 0
-0.0582682 -0.0695834 -0.948 255 173 0
-0.056675 -0.069619 -0.949 255 158 0
-0.05511 -0.0696923 -0.95 255 143 0
-0.0535416 -0.0697657 -0.951 255 128 0
-0.0518606 -0.0696923 -0.95 255 143 0
-0.050183 -0.069619 -0.949 255 158 0
-0.04856 -0.069619 -0.949 255 158 0
-0.046937 -0.069619 -0.949 255 158 0
-0.045314 -0.069619 -0.949 255 158 0
-0.0436911 -0.069619 -0.949 255 158 0
-0.0421124 -0.0696923 -0.95 255 143 0
-0.0404258 -0.0695858 -0.949 255 158 0
-0.0388444 -0.0696591 -0.95 255 143 0
-0.0373381 -0.0698791 -0.953 255 97 0
-0.0356715 -0.0698058 -0.952 255 113 0
-0.0340442 -0.0698058 -0.952 255 113 0
-0.0324168 -0.0698058 -0.952 255 113 0
-0.0307895 -0.0698058 -0.952 255 113 0
-0.0291621 -0.0698058 -0.952 255 113 0
-0.0275348 -0.0698058 -0.952 255 113 0
-0.025853 -0.0696591 -0.95 255 143 0
-0.0242036 -0.0695858 -0.949 255 158 0
-0.0225813 -0.0695858 -0.949 255 158 0
-0.0209812 -0.0696591 -0.95 255 143 0
-0.0193165 -0.0695125 -0.948 255 173 0
-0.017696 -0.0695125 -0.948 255 173 0
-0.0160755 -0.0695125 -0.948 255 173 0
-0.0144702 -0.0695858 -0.949 255 158 0
-0.0128616 -0.0696591 -0.95 255 143 0
-0.0112495 -0.0697324 -0.951 255 128 0
-0.00963393 -0.0698058 -0.952 255 113 0
-0.00801499 -0.0698791 -0.953 255 97 0
-0.00639263 -0.0699524 -0.954 255 88 0
-0.00477928 -0.0702083 -0.958 255 52 0
-0.00314255 -0.0702083 -0.958 255 52 0
-0.00150739 -0.0702815 -0.959 255 42 0
0.000131053 -0.0702815 -0.959 255 42 0
0.00177134 -0.0703548 -0.96 255 32 0
0.00341504 -0.0704281 -0.961 255 24 0
0.00506216 -0.0705014 -0.962 255 18 0
0.00671628 -0.0706124 -0.963 255 11 0
0.00836244 -0.0706124 -0.963 255 11 0
0.010019 -0.0706857 -0.964 255 5 0
0.011691 -0.0708323 -0.966 252 0 0
0.0133423 -0.0708323 -0.966 252 0 0
0.0149936 -0.0708323 -0.966 252 0 0
0.0166449 -0.0708323 -0.966 252 0 0
0.0183151 -0.0709057 -0.967 247 0 0
0.0199062 -0.0706857 -0.964 255 5 0
0.0215317 -0.0706124 -0.963 255 11 0
0.0231537 -0.070539 -0.962 255 18 0
0.0248497 -0.0706857 -0.964 255 5 0
0.0264151 -0.0704657 -0.961 255 24 0
0.0279995 -0.070319 -0.959 255 42 0
0.0296388 -0.070319 -0.959 255 42 0
0.0312781 -0.070319 -0.959 255 42 0
0.0328831 -0.0702457 -0.958 255 52 0
0.0344847 -0.0701724 -0.957 255 62 0
0.0361206 -0.0701724 -0.957 255 62 0
0.0377565 -0.0701724 -0.957 255 62 0
0.0393924 -0.0701724 -0.957 255 62 0
0.0410283 -0.0701724 -0.957 255 62 0
0.0426399 -0.0701325 -0.956 255 71 0
0.0442286 -0.0700592 -0.955 255 79 0
0.0457658 -0.0699124 -0.953 255 97 0
0.0473459 -0.0698391 -0.952 255 113 0
0.048974 -0.0698391 -0.952 255 113 0
0.0506021 -0.0698391 -0.952 255 113 0
0.0521205 -0.0696923 -0.95 255 143 0
0.0536887 -0.069619 -0.949 255 158 0
0.0553117 -0.069619 -0.949 255 158 0
0.0568746 -0.0695456 -0.948 255 173 0
0.058466 -0.06951 -0.947 255 188 0
0.0600864 -0.06951 -0.947 255 188 0
0.0618372 -0.0696568 -0.949 255 158 0
0.0634611 -0.0696568 -0.949 255 158 0
0.065085 -0.0696568 -0.949 255 158 0
0.0667088 -0.0696568 -0.949 255 158 0
0.0682607 -0.0695834 -0.948 255 173 0
0.0698092 -0.06951 -0.947 255 188 0
0.0713121 -0.0693957 -0.945 255 215 0
0.0728527 -0.0693222 -0.944 255 224 0
0.0745477 -0.0693957 -0.945 255 215 0
0.0763267 -0.0695425 -0.947 255 188 0
0.0778656 -0.0694691 -0.946 255 203 0
0.0795691 -0.0695425 -0.947 255 188 0
0.08106 -0.0694309 -0.945 255 215 0
0.0831161 -0.0697983 -0.95 255 143 0
0.0847433 -0.0697983 -0.95 255 143 0
0.0863704 -0.0697983 -0.95 255 143 0
0.0881829 -0.0699453 -0.952 255 113 0
0.0898135 -0.0699453 -0.952 255 113 0
0.0914869 -0.069978 -0.952 255 113 0
0.0930204 -0.0699045 -0.951 255 128 0
0.0948491 -0.0700515 -0.953 255 97 0
0.0965834 -0.070125 -0.954 255 88 0
0.0981153 -0.0700515 -0.953 255 97 0
0.0999113 -0.0701659 -0.954 255 88 0
0.10176 -0.070313 -0.956 255 71 0
0.103507 -0.0703865 -0.957 255 62 0
0.105038 -0.070313 -0.956 255 71 0
0.106677 -0.070313 -0.956 255 71 0
0.108478 -0.0704176 -0.957 255 62 0
0.110349 -0.0705648 -0.959 255 42 0
0.112228 -0.0707119 -0.961 255 24 0
0.113877 -0.0707119 -0.961 255 24 0
0.115405 -0.0706383 -0.96 255 32 0
0.117239 -0.0707513 -0.961 255 24 0
0.118888 -0.0707513 -0.961 255 24 0
0.120412 -0.0706777 -0.96 255 32 0
0.122441 -0.0708985 -0.963 255 11 0
0.124283 -0.0710067 -0.964 255 5 0
0.126592 -0.071375 -0.969 241 0 0
0.128521 -0.0715223 -0.971 236 0 0
0.131261 -0.0721116 -0.979 219 0 0
0.133281 -0.0722956 -0.981 215 0 0
0.135104 -0.0723693 -0.982 213 0 0
0.13693 -0.072443 -0.983 210 0 0
0.139324 -0.0728115 -0.988 200 0 0
0.141239 -0.0729237 -0.989 197 0 0
0.143084 -0.0729974 -0.99 195 0 0
0.144785 -0.0729974 -0.99 195 0 0
0.146339 -0.0729237 -0.989 197 0 0
0.148254 -0.0730294 -0.99 195 0 0
0.149956 -0.0730294 -0.99 195 0 0
0.151812 -0.0731032 -0.991 193 0 0
0.153603 -0.0731446 -0.991 193 0 0
0.155152 -0.0730708 -0.99 195 0 0
0.156697 -0.0729969 -0.989 197 0 0
0.158472 -0.0730311 -0.989 197 0 0
0.160337 -0.073105 -0.99 195 0 0
0.161878 -0.0730311 -0.989 197 0 0
0.163746 -0.073105 -0.99 195 0 0
0.165195 -0.0729924 -0.988 200 0 0
0.166897 -0.0729924 -0.988 200 0 0
0.168598 -0.0729924 -0.988 200 0 0
0.170233 -0.0729639 -0.987 202 0 0
0.171934 -0.0729639 -0.987 202 0 0
0.173811 -0.0730378 -0.988 200 0 0
0.175071 -0.0728533 -0.985 206 0 0
0.177307 -0.0730752 -0.988 200 0 0
0.179192 -0.0731491 -0.989 197 0 0
0.181334 -0.0733259 -0.991 193 0 0
-0.0773548 -0.0739448 -0.984 208 0 0
-0.0744398 -0.0727424 -0.968 243 0 0
-0.0719556 -0.0719158 -0.957 255 62 0
-0.0703907 -0.071991 -0.958 255 52 0
-0.0684316 -0.0716568 -0.954 255 88 0
-0.0666591 -0.0715066 -0.952 255 113 0
-0.0649618 -0.0714315 -0.951 255 128 0
-0.0633345 -0.0714315 -0.951 255 128 0
-0.0615125 -0.0712062 -0.948 255 173 0
-0.0600167 -0.0713564 -0.95 255 143 0
-0.0583911 -0.0713564 -0.95 255 143 0
-0.0567655 -0.0713564 -0.95 255 143 0
-0.055168 -0.0713927 -0.951 255 128 0
-0.0535416 -0.0713927 -0.951 255 128 0
-0.0519152 -0.0713927 -0.951 255 128 0
-0.050183 -0.0712426 -0.949 255 158 0
-0.04856 -0.0712426 -0.949 255 158 0
-0.047036 -0.0713927 -0.951 255 128 0
-0.0453618 -0.0713176 -0.95 255 143 0
-0.0437831 -0.0713927 -0.951 255 128 0
-0.0421567 -0.0713927 -0.951 255 128 0
-0.0405303 -0.0713927 -0.951 255 128 0
-0.0389857 -0.0715429 -0.953 255 97 0
-0.0373772 -0.0715838 -0.954 255 88 0
-0.035709 -0.0715087 -0.953 255 97 0
-0.0340799 -0.0715087 -0.953 255 97 0
-0.0324168 -0.0714337 -0.952 255 113 0
-0.0307895 -0.0714337 -0.952 255 113 0
-0.0291928 -0.0715087 -0.953 255 97 0
-0.0275637 -0.0715087 -0.953 255 97 0
-0.0258802 -0.0713587 -0.951 255 128 0
-0.0242291 -0.0712836 -0.95 255 143 0
-0.0226051 -0.0712836 -0.95 255 143 0
-0.0210033 -0.0713587 -0.951 255 128 0
-0.0193573 -0.0712836 -0.95 255 143 0
-0.0177333 -0.0712836 -0.95 255 143 0
-0.0160925 -0.0712086 -0.949 255 158 0
-0.0144855 -0.0712836 -0.95 255 143 0
-0.0128751 -0.0713587 -0.951 255 128 0
-0.0112613 -0.0714337 -0.952 255 113 0
-0.00963393 -0.0714337 -0.952 255 113 0
-0.0080234 -0.0715838 -0.954 255 88 0
-0.00639263 -0.0715838 -0.954 255 88 0
-0.00478183 -0.0718839 -0.958 255 52 0
-0.00314751 -0.071959 -0.959 255 42 0
-0.00150819 -0.071959 -0.959 255 42 0
0.000131397 -0.072109 -0.961 255 24 0
0.00177228 -0.072034 -0.96 255 32 0
0.00341686 -0.072109 -0.961 255 24 0
0.00507013 -0.0722591 -0.963 255 11 0
0.00671628 -0.0722591 -0.963 255 11 0
0.00837112 -0.0723341 -0.964 255 5 0
0.0100294 -0.0724092 -0.965 255 0 0
0.011691 -0.0724842 -0.966 252 0 0
0.0133423 -0.0724842 -0.966 252 0 0
0.0149781 -0.0724092 -0.965 255 0 0
0.0166449 -0.0724842 -0.966 252 0 0
0.0182772 -0.0724092 -0.965 255 0 0
0.0198649 -0.0721841 -0.962 255 18 0
0.0215317 -0.0722591 -0.963 255 11 0
0.0231778 -0.0722591 -0.963 255 11 0
0.0247466 -0.072034 -0.96 255 32 0
0.0263877 -0.072034 -0.96 255 32 0
0.0280287 -0.072034 -0.96 255 32 0
0.0296388 -0.071959 -0.959 255 42 0
0.0312455 -0.0718839 -0.958 255 52 0
0.0328145 -0.0717338 -0.956 255 71 0
0.0344847 -0.0718089 -0.957 255 62 0
0.0361583 -0.0718839 -0.958 255 52 0
0.0377565 -0.0718089 -0.957 255 62 0
0.0394112 -0.0718431 -0.957 255 62 0
0.0410478 -0.0718431 -0.957 255 62 0
0.0426399 -0.0717681 -0.956 255 71 0
0.0442286 -0.071693 -0.955 255 79 0
0.0458138 -0.0716179 -0.954 255 88 0
0.0473956 -0.0715429 -0.953 255 97 0
0.048974 -0.0714678 -0.952 255 113 0
0.0506021 -0.0714678 -0.952 255 113 0
0.0521754 -0.0713927 -0.951 255 128 0
0.0538584 -0.0714678 -0.952 255 113 0
0.0555166 -0.0715066 -0.952 255 113 0
0.0570256 -0.0713564 -0.95 255 143 0
0.0584042 -0.0710559 -0.946 255 203 0
0.0599595 -0.0709808 -0.945 255 215 0
0.061772 -0.0712062 -0.948 255 173 0
0.0634611 -0.0712813 -0.949 255 158 0
0.0651535 -0.0713564 -0.95 255 143 0
0.0667791 -0.0713564 -0.95 255 143 0
0.0683327 -0.0712813 -0.949 255 158 0
0.0698418 -0.0711643 -0.947 255 188 0
0.0713121 -0.071014 -0.945 255 215 0
0.0726212 -0.0707135 -0.941 253 255 1
0.0744688 -0.0709389 -0.944 255 224 0
0.0763267 -0.0711643 -0.947 255 188 0
0.0780302 -0.0712395 -0.948 255 173 0
0.0795255 -0.0711253 -0.946 255 203 0
0.0812316 -0.0712005 -0.947 255 188 0
0.0831161 -0.0714261 -0.95 255 143 0
0.0847433 -0.0714261 -0.95 255 143 0
0.0863704 -0.0714261 -0.95 255 143 0
0.0879976 -0.0714261 -0.95 255 143 0
0.0896667 -0.0714595 -0.95 255 143 0
0.0913908 -0.0715347 -0.951 255 128 0
0.0930204 -0.0715347 -0.951 255 128 0
0.0947496 -0.0716099 -0.952 255 113 0
0.0964822 -0.0716851 -0.953 255 97 0
0.0981153 -0.0716851 -0.953 255 97 0
0.0999113 -0.0718022 -0.954 255 88 0
0.10176 -0.0719527 -0.956 255 71 0
0.103507 -0.072028 -0.957 255 62 0
0.105148 -0.072028 -0.957 255 62 0
0.106789 -0.072028 -0.957 255 62 0
0.108591 -0.0721351 -0.958 255 52 0
0.110349 -0.0722104 -0.959 255 42 0
0.112228 -0.072361 -0.961 255 24 0
0.11364 -0.0722104 -0.959 255 42 0
0.115349 -0.0722506 -0.959 255 42 0
0.117239 -0.0724013 -0.961 255 24 0
0.118764 -0.0723259 -0.96 255 32 0
0.120412 -0.0723259 -0.96 255 32 0
0.122374 -0.0725119 -0.962 255 18 0
0.123897 -0.0724365 -0.961 255 24 0
0.126069 -0.0727381 -0.965 255 0 0
0.128124 -0.0729642 -0.968 243 0 0
0.130188 -0.0731903 -0.971 236 0 0
0.133009 -0.0738308 -0.979 219 0 0
0.134966 -0.0739816 -0.981 215 0 0
0.136652 -0.0739816 -0.981 215 0 0
0.138833 -0.0742471 -0.984 208 0 0
0.141382 -0.0746998 -0.99 195 0 0
0.14265 -0.0744734 -0.987 202 0 0
0.143762 -0.0741716 -0.983 210 0 0
0.146551 -0.0747325 -0.99 195 0 0
0.148254 -0.0747325 -0.99 195 0 0
0.149956 -0.0747325 -0.99 195 0 0
0.151812 -0.074808 -0.991 193 0 0
0.153603 -0.0748504 -0.991 193 0 0
0.154995 -0.0746993 -0.989 197 0 0
0.156697 -0.0746993 -0.989 197 0 0
0.158472 -0.0747343 -0.989 197 0 0
0.160175 -0.0747343 -0.989 197 0 0
0.161878 -0.0747343 -0.989 197 0 0
0.163659 -0.0747703 -0.989 197 0 0
0.165195 -0.0746947 -0.988 200 0 0
0.166897 -0.0746947 -0.988 200 0 0
0.168703 -0.0747411 -0.988 200 0 0
0.170061 -0.0745898 -0.986 204 0 0
0.171934 -0.0746654 -0.987 202 0 0
0.173459 -0.0745898 -0.986 204 0 0
0.175426 -0.0747037 -0.987 202 0 0
0.176948 -0.074628 -0.986 204 0 0
0.178537 -0.0745816 -0.985 206 0 0
0.181517 -0.0751116 -0.992 191 0 0
-0.0777478 -0.0760142 -0.989 197 0 0
-0.0745936 -0.0745539 -0.97 239 0 0
-0.0723315 -0.073939 -0.962 255 18 0
-0.0704642 -0.0737084 -0.959 255 42 0
-0.0690377 -0.073939 -0.962 255 18 0
-0.0672893 -0.0738276 -0.961 255 24 0
-0.0651667 -0.0732898 -0.954 255 88 0
-0.0631347 -0.0728289 -0.948 255 173 0
-0.0617721 -0.0731362 -0.952 255 113 0
-0.0600167 -0.0729825 -0.95 255 143 0
-0.0585755 -0.073213 -0.953 255 97 0
-0.0568851 -0.0731362 -0.952 255 113 0
-0.055198 -0.0730594 -0.951 255 128 0
-0.053627 -0.0731362 -0.952 255 113 0
-0.0519698 -0.0730965 -0.952 255 113 0
-0.0502888 -0.0730197 -0.951 255 128 0
-0.0486624 -0.0730197 -0.951 255 128 0
-0.0470854 -0.0730965 -0.952 255 113 0
-0.0454095 -0.0730197 -0.951 255 128 0
-0.0438292 -0.0730965 -0.952 255 113 0
-0.042334 -0.0733268 -0.955 255 79 0
-0.0407008 -0.0733268 -0.955 255 79 0
-0.0390675 -0.0733268 -0.955 255 79 0
-0.0373951 -0.07325 -0.954 255 88 0
-0.0357635 -0.07325 -0.954 255 88 0
-0.0341157 -0.0732151 -0.954 255 88 0
-0.0324509 -0.0731384 -0.953 255 97 0
-0.0307895 -0.0730616 -0.952 255 113 0
-0.0291621 -0.0730616 -0.952 255 113 0
