ply
format ascii 1.0
element vertex 1230
property float32 x
property float32 y
property float32 z
property uchar diffuse_red
property uchar diffuse_green
property uchar diffuse_blue
end_header
0.0350383 -0.0150045 -0.889 0 87 255
0.0366798 -0.0150551 -0.892 0 116 255
0.0381602 -0.0150382 -0.891 0 108 255
0.0397708 -0.015072 -0.893 0 125 255
0.0414808 -0.0151395 -0.897 0 153 254
0.0431564 -0.0151901 -0.9 0 175 255
0.0445443 -0.0151395 -0.897 0 153 254
0.0460248 -0.0151226 -0.896 0 146 255
0.0477141 -0.0151732 -0.899 0 167 255
0.0494684 -0.0152408 -0.903 0 197 254
0.0511234 -0.0152745 -0.905 0 212 255
0.0528103 -0.0153155 -0.907 0 223 255
0.0544798 -0.0153493 -0.909 0 235 255
0.0561561 -0.0153831 -0.911 0 250 255
0.0577125 -0.0153831 -0.911 0 250 255
0.0593991 -0.0154169 -0.913 8 255 245
0.0611592 -0.0154675 -0.916 28 255 225
0.0627242 -0.0154675 -0.916 28 255 225
0.0643594 -0.0154844 -0.917 34 255 219
0.0656016 -0.0154082 -0.912 2 255 251
0.0690016 -0.0158306 -0.937 175 255 78
0.0715828 -0.0160502 -0.95 253 255 1
0.074748 -0.0163881 -0.97 255 161 0
0.0801082 -0.0171822 -1.017 193 0 0
0.0805591 -0.0169118 -1.001 250 0 0
0.0837495 -0.0172159 -1.019 189 0 0
0.0864555 -0.0174101 -1.03 164 0 0
-0.0939438 -0.0193212 -1.038 155 0 0
-0.0909255 -0.0190606 -1.024 174 0 0
-0.0876067 -0.0187255 -1.006 228 0 0
-0.0852886 -0.0185952 -0.999 255 9 0
-0.0830781 -0.0184835 -0.993 255 48 0
-0.0799486 -0.0181584 -0.976 255 133 0
-0.0782 -0.0181398 -0.975 255 138 0
-0.0743354 -0.0176189 -0.947 236 255 17
-0.0709505 -0.017191 -0.924 76 255 177
-0.0686203 -0.0170049 -0.914 15 255 238
-0.0669112 -0.0169677 -0.912 2 255 251
-0.0654955 -0.0170049 -0.914 15 255 238
-0.0634096 -0.0168657 -0.907 0 223 255
-0.0617918 -0.0168471 -0.906 0 218 255
-0.0601109 -0.0168099 -0.904 0 205 255
-0.0585017 -0.0167913 -0.903 0 197 254
-0.0569589 -0.0167913 -0.903 0 197 254
-0.0554162 -0.0167913 -0.903 0 197 254
-0.0536944 -0.0167355 -0.9 0 175 255
-0.0519829 -0.0166797 -0.897 0 153 254
-0.0504827 -0.0166904 -0.898 0 160 255
-0.0487856 -0.0166347 -0.895 0 140 255
-0.0472045 -0.0166161 -0.894 0 133 255
-0.0455756 -0.0165789 -0.892 0 116 255
-0.044003 -0.0165603 -0.891 0 108 255
-0.0424338 -0.0165417 -0.89 0 99 255
-0.0409139 -0.0165417 -0.89 0 99 255
-0.0394384 -0.0165603 -0.891 0 108 255
-0.0376615 -0.0164488 -0.885 0 45 254
-0.0362319 -0.016486 -0.887 0 63 255
-0.0346389 -0.0164488 -0.885 0 45 254
-0.0332235 -0.0164964 -0.888 0 75 255
-0.0316721 -0.0164778 -0.887 0 63 255
-0.0301581 -0.0164778 -0.887 0 63 255
-0.0286442 -0.0164778 -0.887 0 63 255
-0.0270996 -0.0164592 -0.886 0 53 254
-0.0255874 -0.0164592 -0.886 0 53 254
-0.0239664 -0.0163849 -0.882 0 23 255
-0.0225883 -0.0164778 -0.887 0 63 255
-0.0211932 -0.0165707 -0.892 0 116 255
-0.0195604 -0.0164778 -0.887 0 63 255
-0.0181075 -0.0165335 -0.89 0 99 255
-0.0165884 -0.0165335 -0.89 0 99 255
-0.0150355 -0.0164964 -0.888 0 75 255
-0.0134132 -0.0163664 -0.881 0 17 254
-0.0118689 -0.0163106 -0.878 0 0 255
-0.0103821 -0.0163292 -0.879 0 4 255
-0.00869996 -0.0159948 -0.861 0 0 156
-0.00735634 -0.0162735 -0.876 0 0 246
-0.00581432 -0.0161434 -0.869 0 0 212
-0.00435101 -0.0162177 -0.873 0 0 231
-0.00284784 -0.0161434 -0.869 0 0 212
-0.00137088 -0.0162177 -0.873 0 0 231
0.000119049 -0.0161992 -0.872 0 0 226
0.00160741 -0.0161992 -0.872 0 0 226
0.00309222 -0.0161806 -0.871 0 0 221
0.00458938 -0.0162177 -0.873 0 0 231
0.00606552 -0.0161806 -0.871 0 0 221
0.00757819 -0.0162363 -0.874 0 0 236
0.00906996 -0.0162363 -0.874 0 0 236
0.0105496 -0.0162177 -0.873 0 0 231
0.01215 -0.0163664 -0.881 0 17 254
0.0137778 -0.016515 -0.889 0 87 255
0.0152951 -0.016515 -0.889 0 87 255
0.0168503 -0.0165521 -0.891 0 108 255
0.0182886 -0.0164778 -0.887 0 63 255
0.0198249 -0.0164964 -0.888 0 75 255
0.0213406 -0.0164964 -0.888 0 75 255
0.0228305 -0.0164778 -0.887 0 63 255
0.0243719 -0.0164964 -0.888 0 75 255
0.0259459 -0.0165335 -0.89 0 99 255
0.027465 -0.0165335 -0.89 0 99 255
0.0290492 -0.0165707 -0.892 0 116 255
0.0305032 -0.0165335 -0.89 0 99 255
0.0319863 -0.016515 -0.889 0 87 255
0.0336167 -0.0165707 -0.892 0 116 255
0.0350383 -0.0165231 -0.889 0 87 255
0.0367209 -0.0165975 -0.893 0 125 255
0.0381174 -0.0165417 -0.89 0 99 255
0.0396818 -0.0165603 -0.891 0 108 255
0.0414808 -0.0166718 -0.897 0 153 254
0.0432523 -0.0167648 -0.902 0 190 255
0.0444947 -0.0166532 -0.896 0 146 255
0.0460761 -0.0166718 -0.897 0 153 254
0.0479264 -0.0167833 -0.903 0 197 254
0.0494136 -0.0167648 -0.902 0 190 255
0.0510104 -0.0167833 -0.903 0 197 254
0.0528103 -0.0168657 -0.907 0 223 255
0.0544798 -0.0169029 -0.909 0 235 255
0.0562177 -0.0169587 -0.912 2 255 251
0.0579026 -0.0169959 -0.914 15 255 238
0.0593991 -0.0169773 -0.913 8 255 245
0.0610257 -0.0169959 -0.914 15 255 238
0.0628612 -0.0170702 -0.918 41 254 212
0.0645699 -0.0171074 -0.92 54 255 199
0.0667525 -0.0172654 -0.928 108 255 145
0.067897 -0.0171538 -0.922 64 255 189
0.0728638 -0.017991 -0.967 255 172 0
0.0742086 -0.0179166 -0.963 255 191 0
-0.0919022 -0.021036 -1.035 158 0 0
-0.0883905 -0.0206295 -1.015 199 0 0
-0.0858009 -0.0204263 -1.005 231 0 0
-0.0831618 -0.0202027 -0.994 255 43 0
-0.0799486 -0.0198274 -0.976 255 133 0
-0.0680948 -0.0184257 -0.907 0 223 255
-0.0669112 -0.0185273 -0.912 2 255 251
-0.0644923 -0.0182835 -0.9 0 175 255
-0.0635495 -0.0184565 -0.909 0 235 255
-0.0617918 -0.0183955 -0.906 0 218 255
-0.0601109 -0.0183549 -0.904 0 205 255
-0.0585017 -0.0183346 -0.903 0 197 254
-0.0569589 -0.0183346 -0.903 0 197 254
-0.0554162 -0.0183346 -0.903 0 197 254
-0.0538137 -0.0183143 -0.902 0 190 255
-0.0523306 -0.0183346 -0.903 0 197 254
-0.0505389 -0.0182448 -0.899 0 167 255
-0.0487856 -0.0181636 -0.895 0 140 255
-0.0472045 -0.0181433 -0.894 0 133 255
-0.0457289 -0.0181636 -0.895 0 140 255
-0.0441018 -0.018123 -0.893 0 125 255
-0.0423384 -0.0180215 -0.888 0 75 255
-0.040868 -0.0180418 -0.889 0 87 255
-0.0395269 -0.018123 -0.893 0 125 255
-0.037704 -0.0179809 -0.886 0 53 254
-0.0362319 -0.0180012 -0.887 0 63 255
-0.0346389 -0.0179606 -0.885 0 45 254
-0.0332025 -0.0180012 -0.887 0 63 255
-0.0316721 -0.0179923 -0.887 0 63 255
-0.0301581 -0.0179923 -0.887 0 63 255
-0.0286119 -0.017972 -0.886 0 53 254
-0.0270996 -0.017972 -0.886 0 53 254
-0.0255585 -0.0179518 -0.885 0 45 254
-0.0240751 -0.017972 -0.886 0 53 254
-0.0224865 -0.0179112 -0.883 0 30 254
-0.0211694 -0.0180735 -0.891 0 108 255
-0.0197368 -0.0181546 -0.895 0 140 255
-0.0181075 -0.0180532 -0.89 0 99 255
-0.0165884 -0.0180532 -0.89 0 99 255
-0.0151032 -0.0180937 -0.892 0 116 255
-0.013535 -0.0180329 -0.889 0 87 255
-0.0119636 -0.0179518 -0.885 0 45 254
-0.0104766 -0.0179923 -0.887 0 63 255
-0.00896267 -0.0179923 -0.887 0 63 255
-0.00744871 -0.0179923 -0.887 0 63 255
-0.00584777 -0.0177286 -0.874 0 0 236
-0.00441082 -0.0179518 -0.885 0 45 254
-0.00286095 -0.0177083 -0.873 0 0 231
-0.00137245 -0.0177286 -0.874 0 0 236
0.000119322 -0.0177286 -0.874 0 0 236
0.00160925 -0.0177083 -0.873 0 0 231
0.00310997 -0.0177692 -0.876 0 0 246
0.00460515 -0.0177692 -0.876 0 0 246
0.00608641 -0.0177286 -0.874 0 0 236
0.00765622 -0.0179112 -0.883 0 30 254
0.00906996 -0.0177286 -0.874 0 0 236
0.0106584 -0.0178909 -0.882 0 23 255
0.0122328 -0.0179923 -0.887 0 63 255
0.0137932 -0.0180532 -0.89 0 99 255
0.0153811 -0.0181343 -0.894 0 133 255
0.0167747 -0.0179923 -0.887 0 63 255
0.0184124 -0.018114 -0.893 0 125 255
0.0198026 -0.0179923 -0.887 0 63 255
0.0213166 -0.0179923 -0.887 0 63 255
0.022882 -0.0180329 -0.889 0 87 255
0.0244268 -0.0180532 -0.89 0 99 255
0.0259459 -0.0180532 -0.89 0 99 255
0.0274958 -0.0180735 -0.891 0 108 255
0.0290492 -0.0180937 -0.892 0 116 255
0.0305032 -0.0180532 -0.89 0 99 255
0.0319863 -0.0180329 -0.889 0 87 255
0.0335956 -0.0180824 -0.891 0 108 255
0.0350777 -0.0180621 -0.89 0 99 255
0.036762 -0.0181433 -0.894 0 133 255
0.0381174 -0.0180621 -0.89 0 99 255
0.0398154 -0.0181433 -0.894 0 133 255
0.0416657 -0.0182853 -0.901 0 182 255
0.0430126 -0.0182042 -0.897 0 153 254
0.044594 -0.0182245 -0.898 0 160 255
0.0462302 -0.018265 -0.9 0 175 255
0.0479794 -0.0183462 -0.904 0 205 255
0.0495232 -0.0183462 -0.904 0 205 255
0.0511477 -0.0183752 -0.905 0 212 255
0.0527521 -0.0183955 -0.906 0 218 255
0.0545397 -0.0184768 -0.91 0 242 255
0.0562177 -0.0185174 -0.912 2 255 251
0.0578392 -0.0185377 -0.913 8 255 245
0.059334 -0.0185174 -0.912 2 255 251
0.0609589 -0.0185377 -0.913 8 255 245
0.0626557 -0.0185783 -0.915 21 255 232
0.0646401 -0.0187001 -0.921 59 255 194
0.0673279 -0.0190148 -0.936 167 255 86
0.0684125 -0.0188726 -0.929 116 255 137
0.0708293 -0.0190961 -0.94 196 255 57
-0.0855448 -0.0220796 -1.002 244 0 0
-0.0840821 -0.0221457 -1.005 231 0 0
-0.0803581 -0.0216065 -0.981 255 111 0
-0.0719488 -0.0206374 -0.937 175 255 78
-0.0688455 -0.0201969 -0.917 34 255 219
-0.0660308 -0.0198225 -0.9 0 175 255
-0.0650656 -0.0199987 -0.908 0 229 255
-0.0636194 -0.020032 -0.91 0 242 255
-0.0619282 -0.019988 -0.908 0 229 255
-0.0601109 -0.0199 -0.904 0 205 255
-0.0585665 -0.0199 -0.904 0 205 255
-0.0568958 -0.0198559 -0.902 0 190 255
-0.0553548 -0.0198559 -0.902 0 190 255
-0.0538734 -0.019878 -0.903 0 197 254
-0.0523886 -0.0199 -0.904 0 205 255
-0.0506754 -0.0198339 -0.901 0 182 255
-0.0488402 -0.0197145 -0.896 0 146 255
-0.0472573 -0.0196925 -0.895 0 140 255
-0.0458311 -0.0197365 -0.897 0 153 254
-0.0442499 -0.0197145 -0.896 0 146 255
-0.0425291 -0.0196265 -0.892 0 116 255
-0.0409139 -0.0195825 -0.89 0 99 255
-0.0394826 -0.0196265 -0.892 0 116 255
-0.037704 -0.0194945 -0.886 0 53 254
-0.0363136 -0.0195605 -0.889 0 87 255
-0.034678 -0.0194945 -0.886 0 53 254
-0.033165 -0.0194945 -0.886 0 53 254
-0.0317078 -0.0195288 -0.888 0 75 255
-0.0301241 -0.0194848 -0.886 0 53 254
-0.0286119 -0.0194848 -0.886 0 53 254
-0.0271302 -0.0195068 -0.887 0 63 255
-0.0256163 -0.0195068 -0.887 0 63 255
-0.0240479 -0.0194628 -0.885 0 45 254
-0.0225629 -0.0194848 -0.886 0 53 254
-0.0211694 -0.0195948 -0.891 0 108 255
-0.0196707 -0.0196168 -0.892 0 116 255
-0.0182092 -0.0196828 -0.895 0 140 255
-0.0164207 -0.0193749 -0.881 0 17 254
-0.0149677 -0.0194409 -0.884 0 38 254
-0.0134741 -0.0194628 -0.885 0 45 254
-0.0120041 -0.0195288 -0.888 0 75 255
-0.0104766 -0.0195068 -0.887 0 63 255
-0.00895257 -0.0194848 -0.886 0 53 254
-0.00733954 -0.0192209 -0.874 0 0 236
-0.00592137 -0.0194628 -0.885 0 45 254
-0.00439587 -0.0193969 -0.882 0 23 255
-0.00288716 -0.0193749 -0.881 0 17 254
-0.00138344 -0.0193749 -0.881 0 17 254
0.000120277 -0.0193749 -0.881 0 17 254
0.00162584 -0.0193969 -0.882 0 23 255
0.00314192 -0.0194628 -0.885 0 45 254
0.00465247 -0.0194628 -0.885 0 45 254
0.0061282 -0.0193529 -0.88 0 10 255
0.00770825 -0.0195508 -0.889 0 87 255
0.00916336 -0.0194189 -0.883 0 30 254
0.0107188 -0.0195068 -0.887 0 63 255
0.0123017 -0.0196168 -0.892 0 116 255
0.0138242 -0.0196168 -0.892 0 116 255
0.0153467 -0.0196168 -0.892 0 116 255
0.0168503 -0.0195948 -0.891 0 108 255
0.0183505 -0.0195728 -0.89 0 99 255
0.0199366 -0.0196388 -0.893 0 125 255
0.0214608 -0.0196388 -0.893 0 125 255
0.0229077 -0.0195728 -0.89 0 99 255
0.0244268 -0.0195728 -0.89 0 99 255
0.0259459 -0.0195728 -0.89 0 99 255
0.0274341 -0.0195508 -0.889 0 87 255
0.0290818 -0.0196388 -0.893 0 125 255
0.0305717 -0.0196168 -0.892 0 116 255
0.0320222 -0.0195728 -0.89 0 99 255
0.033671 -0.0196485 -0.893 0 125 255
0.035196 -0.0196485 -0.893 0 125 255
0.036762 -0.0196705 -0.894 0 133 255
0.0385885 -0.0198245 -0.901 0 182 255
0.039949 -0.0197365 -0.897 0 153 254
0.0415733 -0.0197805 -0.899 0 167 255
0.0429646 -0.0197145 -0.896 0 146 255
0.0444947 -0.0197145 -0.896 0 146 255
0.0461789 -0.0197805 -0.899 0 167 255
0.0480325 -0.0199125 -0.905 0 212 255
0.0496875 -0.0199565 -0.907 0 223 255
0.0512042 -0.019944 -0.906 0 218 255
0.0528103 -0.019966 -0.907 0 223 255
0.0545397 -0.020032 -0.91 0 242 255
0.0562177 -0.0200761 -0.912 2 255 251
0.0578392 -0.0200981 -0.913 8 255 245
0.0593991 -0.0200981 -0.913 8 255 245
0.0610257 -0.0201201 -0.914 15 255 238
0.0628612 -0.0202081 -0.918 41 254 212
0.0648853 -0.0203511 -0.924 76 255 177
0.067256 -0.0205934 -0.935 160 255 93
0.0685597 -0.0205053 -0.931 133 255 120
0.0717335 -0.0209678 -0.952 255 243 0
0.074748 -0.0213642 -0.97 255 161 0
-0.0845004 -0.0239838 -1.01 215 0 0
-0.0828551 -0.0240075 -1.011 212 0 0
-0.0720256 -0.0222634 -0.938 183 255 70
-0.0694461 -0.0219549 -0.925 84 255 169
-0.0669845 -0.0216701 -0.913 8 255 245
-0.0649222 -0.0215039 -0.906 0 218 255
-0.0635834 -0.0215751 -0.909 0 235 255
-0.0620646 -0.0215873 -0.91 0 242 255
-0.0603104 -0.0215162 -0.907 0 223 255
-0.0587608 -0.0215162 -0.907 0 223 255
-0.057022 -0.021445 -0.904 0 205 255
-0.0554162 -0.0214213 -0.903 0 197 254
-0.0538137 -0.0213975 -0.902 0 190 255
-0.0523306 -0.0214213 -0.903 0 197 254
-0.0507316 -0.0213975 -0.902 0 190 255
-0.0488402 -0.0212451 -0.896 0 146 255
-0.0471517 -0.021174 -0.893 0 125 255
-0.0456778 -0.0211977 -0.894 0 133 255
-0.0441018 -0.021174 -0.893 0 125 255
-0.0425291 -0.0211503 -0.892 0 116 255
-0.0409599 -0.0211266 -0.891 0 108 255
-0.0393498 -0.0210791 -0.889 0 87 255
-0.037704 -0.021008 -0.886 0 53 254
-0.0363136 -0.0210791 -0.889 0 87 255
-0.0346389 -0.0209843 -0.885 0 45 254
-0.0331276 -0.0209843 -0.885 0 45 254
-0.0316878 -0.0210317 -0.887 0 63 255
-0.0301581 -0.0210213 -0.887 0 63 255
-0.0286119 -0.0209976 -0.886 0 53 254
-0.0271302 -0.0210213 -0.887 0 63 255
-0.0256163 -0.0210213 -0.887 0 63 255
-0.0240751 -0.0209976 -0.886 0 53 254
-0.0225629 -0.0209976 -0.886 0 53 254
-0.0210744 -0.0210213 -0.887 0 63 255
-0.0196486 -0.0211161 -0.891 0 108 255
-0.0180668 -0.021045 -0.888 0 75 255
-0.016607 -0.0211161 -0.891 0 108 255
-0.0149339 -0.0209028 -0.882 0 23 255
-0.0134741 -0.0209739 -0.885 0 45 254
-0.0119636 -0.0209739 -0.885 0 45 254
-0.010453 -0.0209739 -0.885 0 45 254
-0.00891215 -0.0209028 -0.882 0 23 255
-0.00740673 -0.0209028 -0.882 0 23 255
-0.0059013 -0.0209028 -0.882 0 23 255
-0.0043859 -0.0208554 -0.88 0 10 255
-0.00288061 -0.0208317 -0.879 0 4 255
-0.00138187 -0.0208554 -0.88 0 10 255
0.000120141 -0.0208554 -0.88 0 10 255
0.00162769 -0.0209265 -0.883 0 30 254
0.00312417 -0.0208554 -0.88 0 10 255
0.00462093 -0.0208317 -0.879 0 4 255
0.00616302 -0.0209739 -0.885 0 45 254
0.00763021 -0.0208554 -0.88 0 10 255
0.00917374 -0.0209502 -0.884 0 38 254
0.0107309 -0.021045 -0.888 0 75 255
0.01215 -0.0208791 -0.881 0 17 254
0.0136848 -0.0209265 -0.883 0 30 254
0.0152779 -0.021045 -0.888 0 75 255
0.0168503 -0.0211161 -0.891 0 108 255
0.0182886 -0.0210213 -0.887 0 63 255
0.0198249 -0.021045 -0.888 0 75 255
0.0214608 -0.0211635 -0.893 0 125 255
0.022882 -0.0210687 -0.889 0 87 255
0.0243994 -0.0210687 -0.889 0 87 255
0.0259168 -0.0210687 -0.889 0 87 255
0.0274341 -0.0210687 -0.889 0 87 255
0.0290166 -0.0211161 -0.891 0 108 255
0.0305717 -0.0211398 -0.892 0 116 255
0.0321101 -0.0211503 -0.892 0 116 255
0.0337087 -0.0211977 -0.894 0 133 255
0.035196 -0.021174 -0.893 0 125 255
0.0368032 -0.0212214 -0.895 0 140 255
0.0385885 -0.0213637 -0.901 0 182 255
0.039949 -0.0212688 -0.897 0 153 254
0.0416195 -0.02134 -0.9 0 175 255
0.0431085 -0.0213163 -0.899 0 167 255
0.0444947 -0.0212451 -0.896 0 146 255
0.0461789 -0.0213163 -0.899 0 167 255
0.0479794 -0.0214348 -0.904 0 205 255
0.0497423 -0.0215297 -0.908 0 229 255
0.0513738 -0.0215636 -0.909 0 235 255
0.0528103 -0.0215162 -0.907 0 223 255
0.0545997 -0.021611 -0.911 0 250 255
0.0562177 -0.0216348 -0.912 2 255 251
0.0578392 -0.0216585 -0.913 8 255 245
0.0593991 -0.0216585 -0.913 8 255 245
0.0609589 -0.0216585 -0.913 8 255 245
0.0627927 -0.0217534 -0.917 34 255 219
0.0648151 -0.0219074 -0.923 70 255 183
0.0671121 -0.0221448 -0.933 146 255 107
0.0688543 -0.0221922 -0.935 160 255 93
0.072261 -0.0227619 -0.959 255 212 0
-0.0845761 -0.0262718 -1.032 162 0 0
-0.0695963 -0.0235875 -0.927 99 255 154
-0.0665443 -0.0230786 -0.907 0 223 255
-0.0649222 -0.0230532 -0.906 0 218 255
-0.0637233 -0.0231804 -0.911 0 250 255
-0.0621328 -0.023168 -0.911 0 250 255
-0.0603769 -0.0230917 -0.908 0 229 255
-0.0586313 -0.0230155 -0.905 0 212 255
-0.0570851 -0.0230155 -0.905 0 212 255
-0.0554162 -0.0229646 -0.903 0 197 254
-0.0538734 -0.0229646 -0.903 0 197 254
-0.0523306 -0.0229646 -0.903 0 197 254
-0.0507879 -0.0229646 -0.903 0 197 254
-0.0488088 -0.0227611 -0.895 0 140 255
-0.0470989 -0.0226741 -0.892 0 116 255
-0.0455245 -0.0226487 -0.891 0 108 255
-0.0440524 -0.0226741 -0.892 0 116 255
-0.0425768 -0.0226995 -0.893 0 125 255
-0.0409599 -0.0226487 -0.891 0 108 255
-0.0394826 -0.0226741 -0.892 0 116 255
-0.0376615 -0.0224961 -0.885 0 45 254
-0.0363136 -0.0225978 -0.889 0 87 255
-0.0346389 -0.0224961 -0.885 0 45 254
-0.0331276 -0.0224961 -0.885 0 45 254
-0.031652 -0.0225216 -0.886 0 53 254
-0.030173 -0.022547 -0.887 0 63 255
-0.0286119 -0.0225104 -0.886 0 53 254
-0.0271302 -0.0225358 -0.887 0 63 255
-0.0255874 -0.0225104 -0.886 0 53 254
-0.0240751 -0.0225104 -0.886 0 53 254
-0.0225374 -0.022485 -0.885 0 45 254
-0.0210506 -0.0225104 -0.886 0 53 254
-0.0195384 -0.0225104 -0.886 0 53 254
-0.0179854 -0.0224596 -0.884 0 38 254
-0.0164766 -0.0224596 -0.884 0 38 254
-0.0149677 -0.0224596 -0.884 0 38 254
-0.0135046 -0.0225358 -0.887 0 63 255
-0.01195 -0.0224596 -0.884 0 38 254
-0.0104294 -0.0224342 -0.883 0 30 254
-0.00894247 -0.022485 -0.885 0 45 254
-0.00740673 -0.0224088 -0.882 0 23 255
-0.0059013 -0.0224088 -0.882 0 23 255
-0.00436597 -0.0222564 -0.876 0 0 246
-0.00288389 -0.022358 -0.88 0 10 255
-0.00138501 -0.0224088 -0.882 0 23 255
0.000120414 -0.0224088 -0.882 0 23 255
0.001624 -0.0223834 -0.881 0 17 254
0.00312417 -0.022358 -0.88 0 10 255
0.00463144 -0.0223834 -0.881 0 17 254
0.0061282 -0.022358 -0.88 0 10 255
0.00762154 -0.0223326 -0.879 0 4 255
0.00916336 -0.0224342 -0.883 0 30 254
0.0106826 -0.0224596 -0.884 0 38 254
0.0121638 -0.0224088 -0.882 0 23 255
0.0136848 -0.0224342 -0.883 0 30 254
0.0151919 -0.0224342 -0.883 0 30 254
0.0167747 -0.0225358 -0.887 0 63 255
0.0184948 -0.0227899 -0.897 0 153 254
0.0198919 -0.0226375 -0.891 0 108 255
0.0212925 -0.0225104 -0.886 0 53 254
0.022882 -0.0225867 -0.889 0 87 255
0.0243994 -0.0225867 -0.889 0 87 255
0.0259168 -0.0225867 -0.889 0 87 255
0.0274341 -0.0225867 -0.889 0 87 255
0.0289841 -0.0226121 -0.89 0 99 255
0.0306211 -0.0226995 -0.893 0 125 255
0.0321821 -0.0227249 -0.894 0 133 255
0.0337087 -0.0227249 -0.894 0 133 255
0.035196 -0.0226995 -0.893 0 125 255
0.0368443 -0.0227758 -0.896 0 146 255
0.0383315 -0.0227503 -0.895 0 140 255
0.0400381 -0.022852 -0.899 0 167 255
0.0416657 -0.0229028 -0.901 0 182 255
0.0430605 -0.0228266 -0.898 0 160 255
0.0446437 -0.022852 -0.899 0 167 255
0.046333 -0.0229283 -0.902 0 190 255
0.0479794 -0.0229791 -0.904 0 205 255
0.0497659 -0.0230917 -0.908 0 229 255
0.0513738 -0.0231172 -0.909 0 235 255
0.0528685 -0.0230917 -0.908 0 229 255
0.0545397 -0.0231426 -0.91 0 242 255
0.0562177 -0.0231935 -0.912 2 255 251
0.0577759 -0.0231935 -0.912 2 255 251
0.0594641 -0.0232443 -0.914 15 255 238
0.0609589 -0.0232189 -0.913 8 255 245
0.0624503 -0.0231935 -0.912 2 255 251
0.0643235 -0.0233076 -0.916 28 255 225
0.0669683 -0.0236893 -0.931 133 255 120
0.0688543 -0.0237911 -0.935 160 255 93
0.0718089 -0.0242491 -0.953 255 237 0
-0.0672046 -0.024874 -0.916 28 255 225
-0.0649939 -0.0246296 -0.907 0 223 255
-0.0633036 -0.0245753 -0.905 0 212 255
-0.06186 -0.0246165 -0.907 0 223 255
-0.0604434 -0.0246707 -0.909 0 235 255
-0.058696 -0.0245893 -0.906 0 218 255
-0.0570851 -0.0245622 -0.905 0 212 255
-0.0554775 -0.024535 -0.904 0 205 255
-0.0538734 -0.0245079 -0.903 0 197 254
-0.0523306 -0.0245079 -0.903 0 197 254
-0.0506191 -0.0244265 -0.9 0 175 255
-0.0487543 -0.0242636 -0.894 0 133 255
-0.0471517 -0.024225 -0.893 0 125 255
-0.0455756 -0.0241979 -0.892 0 116 255
-0.0440524 -0.0241979 -0.892 0 116 255
-0.0425291 -0.0241979 -0.892 0 116 255
-0.040868 -0.0241165 -0.889 0 87 255
-0.0393498 -0.0241165 -0.889 0 87 255
-0.037704 -0.0240351 -0.886 0 53 254
-0.0363136 -0.0241165 -0.889 0 87 255
-0.034678 -0.0240351 -0.886 0 53 254
-0.0333148 -0.0241436 -0.89 0 99 255
-0.0317235 -0.0240894 -0.888 0 75 255
-0.030173 -0.0240622 -0.887 0 63 255
-0.0286119 -0.0240232 -0.886 0 53 254
-0.0271302 -0.0240503 -0.887 0 63 255
-0.0255874 -0.0240232 -0.886 0 53 254
-0.0241023 -0.0240503 -0.887 0 63 255
-0.0225629 -0.0240232 -0.886 0 53 254
-0.0210744 -0.0240503 -0.887 0 63 255
-0.0195384 -0.0240232 -0.886 0 53 254
-0.0180058 -0.0239961 -0.885 0 45 254
-0.0164766 -0.023969 -0.884 0 38 254
-0.0149677 -0.023969 -0.884 0 38 254
-0.0134741 -0.0239961 -0.885 0 45 254
-0.0119095 -0.0238877 -0.881 0 17 254
-0.0104176 -0.0239148 -0.882 0 23 255
-0.00891215 -0.0239148 -0.882 0 23 255
-0.00738993 -0.0238605 -0.88 0 10 255
-0.00587453 -0.0238063 -0.878 0 0 255
-0.00436597 -0.0237521 -0.876 0 0 246
-0.00288716 -0.0238877 -0.881 0 17 254
-0.00138344 -0.0238877 -0.881 0 17 254
0.000120004 -0.0238334 -0.879 0 4 255
0.00161847 -0.0238063 -0.878 0 0 255
0.00312062 -0.0238334 -0.879 0 4 255
0.00461567 -0.0238063 -0.878 0 0 255
0.0061282 -0.0238605 -0.88 0 10 255
0.00762154 -0.0238334 -0.879 0 4 255
0.00912185 -0.0238334 -0.879 0 4 255
0.0106342 -0.0238605 -0.88 0 10 255
0.0121914 -0.023969 -0.884 0 38 254
0.0136693 -0.0239148 -0.882 0 23 255
0.0151747 -0.0239148 -0.882 0 23 255
0.0167936 -0.0240775 -0.888 0 75 255
0.0184948 -0.0243215 -0.897 0 153 254
0.0199142 -0.0241859 -0.892 0 116 255
0.0213887 -0.0241317 -0.89 0 99 255
0.0229592 -0.0241859 -0.892 0 116 255
0.0244543 -0.0241588 -0.891 0 108 255
0.0259168 -0.0241046 -0.889 0 87 255
0.027465 -0.0241317 -0.89 0 99 255
0.0291143 -0.0242401 -0.894 0 133 255
0.0306554 -0.0242521 -0.894 0 133 255
0.0321821 -0.0242521 -0.894 0 133 255
0.033671 -0.024225 -0.893 0 125 255
0.035196 -0.024225 -0.893 0 125 255
0.0368032 -0.0242792 -0.895 0 140 255
0.0383315 -0.0242792 -0.895 0 140 255
0.0400826 -0.0244149 -0.9 0 175 255
0.0416195 -0.0244149 -0.9 0 175 255
0.0430605 -0.0243606 -0.898 0 160 255
0.0446437 -0.0243878 -0.899 0 167 255
0.0463843 -0.0244963 -0.903 0 197 254
0.0479264 -0.0244963 -0.903 0 197 254
0.0495467 -0.024535 -0.904 0 205 255
0.0514303 -0.0246979 -0.91 0 242 255
0.0530432 -0.024725 -0.911 0 250 255
0.0545997 -0.024725 -0.911 0 250 255
0.0562177 -0.0247522 -0.912 2 255 251
0.0578392 -0.0247793 -0.913 8 255 245
0.0595292 -0.0248336 -0.915 21 255 232
0.0614931 -0.0249964 -0.921 59 255 194
0.0633743 -0.0251184 -0.925 84 255 169
0.0646044 -0.0249826 -0.92 54 255 199
0.0669683 -0.0252813 -0.931 133 255 120
0.0688543 -0.0253899 -0.935 160 255 93
0.0721103 -0.0259874 -0.957 255 223 0
-0.0677916 -0.0266713 -0.924 76 255 177
-0.0659971 -0.0265847 -0.921 59 255 194
-0.0632336 -0.026094 -0.904 0 205 255
-0.0620295 -0.0262383 -0.909 0 235 255
-0.0605099 -0.0262532 -0.91 0 242 255
-0.0589552 -0.0262532 -0.91 0 242 255
-0.0571482 -0.0261378 -0.906 0 218 255
-0.0555389 -0.0261089 -0.905 0 212 255
-0.0539331 -0.0260801 -0.904 0 205 255
-0.0523886 -0.0260801 -0.904 0 205 255
-0.0506754 -0.0259935 -0.901 0 182 255
-0.0489724 -0.025907 -0.898 0 160 255
-0.0474382 -0.025907 -0.898 0 160 255
-0.04578 -0.025837 -0.896 0 146 255
-0.0441511 -0.0257793 -0.894 0 133 255
-0.0425768 -0.0257505 -0.893 0 125 255
-0.0410518 -0.0257505 -0.893 0 125 255
-0.0394826 -0.0257217 -0.892 0 116 255
-0.0378317 -0.0256352 -0.889 0 87 255
-0.0362319 -0.0255775 -0.887 0 63 255
-0.0348346 -0.025664 -0.89 0 99 255
-0.0333522 -0.0256928 -0.891 0 108 255
-0.0317592 -0.0256352 -0.889 0 87 255
-0.030139 -0.0255486 -0.886 0 53 254
-0.028626 -0.0255486 -0.886 0 53 254
-0.0271608 -0.0255937 -0.888 0 75 255
-0.0256163 -0.0255648 -0.887 0 63 255
-0.0241295 -0.0255937 -0.888 0 75 255
-0.0225883 -0.0255648 -0.887 0 63 255
-0.0210506 -0.025536 -0.886 0 53 254
-0.0195604 -0.0255648 -0.887 0 63 255
-0.0179854 -0.0254784 -0.884 0 38 254
-0.0164579 -0.0254496 -0.883 0 30 254
-0.0149677 -0.0254784 -0.884 0 38 254
-0.0134437 -0.0254496 -0.883 0 30 254
-0.0119095 -0.0253919 -0.881 0 17 254
-0.0104058 -0.0253919 -0.881 0 17 254
-0.00890205 -0.0253919 -0.881 0 17 254
-0.00738993 -0.0253631 -0.88 0 10 255
-0.00586784 -0.0252766 -0.877 0 0 251
-0.00437095 -0.0252766 -0.877 0 0 251
-0.00288061 -0.0253343 -0.879 0 4 255
-0.0013803 -0.0253343 -0.879 0 4 255
0.000120004 -0.0253343 -0.879 0 4 255
0.00161847 -0.0253055 -0.878 0 0 255
0.00312062 -0.0253343 -0.879 0 4 255
0.00462093 -0.0253343 -0.879 0 4 255
0.00612123 -0.0253343 -0.879 0 4 255
0.00763021 -0.0253631 -0.88 0 10 255
0.00911147 -0.0253055 -0.878 0 0 255
0.0106584 -0.0254207 -0.882 0 23 255
0.0122052 -0.0255072 -0.885 0 45 254
0.0136693 -0.0254207 -0.882 0 23 255
0.0151747 -0.0254207 -0.882 0 23 255
0.0167747 -0.0255648 -0.887 0 63 255
0.0183093 -0.0255937 -0.888 0 75 255
0.0199589 -0.0257666 -0.894 0 133 255
0.0213887 -0.0256513 -0.89 0 99 255
0.0230107 -0.0257666 -0.894 0 133 255
0.0244543 -0.0256801 -0.891 0 108 255
0.0259459 -0.0256513 -0.89 0 99 255
0.0274958 -0.0256801 -0.891 0 108 255
0.0291287 -0.0257793 -0.894 0 133 255
0.0306897 -0.0258082 -0.895 0 140 255
0.0321821 -0.0257793 -0.894 0 133 255
0.0337087 -0.0257793 -0.894 0 133 255
0.0352354 -0.0257793 -0.894 0 133 255
0.0368443 -0.025837 -0.896 0 146 255
0.0383315 -0.0258082 -0.895 0 140 255
0.0400826 -0.0259524 -0.9 0 175 255
0.0415733 -0.0259235 -0.899 0 167 255
0.0431564 -0.0259524 -0.9 0 175 255
0.044892 -0.0260677 -0.904 0 205 255
0.0464871 -0.0260965 -0.905 0 212 255
0.0479491 -0.0260512 -0.903 0 197 254
0.0495467 -0.0260801 -0.904 0 205 255
0.0513738 -0.0262243 -0.909 0 235 255
0.0530432 -0.026282 -0.911 0 250 255
0.0545997 -0.026282 -0.911 0 250 255
0.0562177 -0.0263109 -0.912 2 255 251
0.0578392 -0.0263397 -0.913 8 255 245
0.0596593 -0.0264551 -0.917 34 255 219
0.0616266 -0.0266282 -0.923 70 255 183
0.0635113 -0.0267579 -0.927 99 255 154
0.0648151 -0.0266424 -0.923 70 255 183
0.0669683 -0.0268734 -0.931 133 255 120
0.0694434 -0.0272197 -0.943 214 255 39
0.0721857 -0.0276527 -0.958 255 218 0
0.0755186 -0.0282877 -0.98 255 116 0
0.0790842 -0.0289805 -1.004 236 0 0
-0.0676448 -0.0281902 -0.922 64 255 189
-0.0646356 -0.0275787 -0.902 0 190 255
-0.0633735 -0.027701 -0.906 0 218 255
-0.0620978 -0.0278233 -0.91 0 242 255
-0.0607094 -0.0279001 -0.913 8 255 245
-0.05902 -0.027839 -0.911 0 250 255
-0.0572112 -0.0277168 -0.907 0 223 255
-0.0555389 -0.0276557 -0.905 0 212 255
-0.0539331 -0.0276251 -0.904 0 205 255
-0.0523886 -0.0276251 -0.904 0 205 255
-0.0507879 -0.0275945 -0.903 0 197 254
-0.0490815 -0.0275029 -0.9 0 175 255
-0.047491 -0.0274723 -0.899 0 167 255
-0.0458822 -0.0274287 -0.898 0 160 255
-0.0442993 -0.0273982 -0.897 0 153 254
-0.0426245 -0.0273065 -0.894 0 133 255
-0.0410518 -0.027276 -0.893 0 125 255
-0.0393498 -0.0271538 -0.889 0 87 255
-0.0380019 -0.027276 -0.893 0 125 255
-0.036191 -0.0270622 -0.886 0 53 254
-0.0347563 -0.0271233 -0.888 0 75 255
-0.0332773 -0.0271538 -0.889 0 87 255
-0.0316878 -0.0270927 -0.887 0 63 255
-0.030173 -0.0270927 -0.887 0 63 255
-0.0286906 -0.0271233 -0.888 0 75 255
-0.0271436 -0.0270927 -0.887 0 63 255
-0.0256451 -0.0271099 -0.888 0 75 255
-0.0241566 -0.0271404 -0.889 0 87 255
-0.0225883 -0.0270794 -0.887 0 63 255
-0.0210506 -0.0270488 -0.886 0 53 254
-0.0195384 -0.0270488 -0.886 0 53 254
-0.0179854 -0.0269878 -0.884 0 38 254
-0.0164579 -0.0269572 -0.883 0 30 254
-0.0149339 -0.0269267 -0.882 0 23 255
-0.0134284 -0.0269267 -0.882 0 23 255
-0.011923 -0.0269267 -0.882 0 23 255
-0.0104058 -0.0268962 -0.881 0 17 254
-0.00890205 -0.0268962 -0.881 0 17 254
-0.00738993 -0.0268656 -0.88 0 10 255
-0.00586115 -0.0267435 -0.876 0 0 246
-0.00436098 -0.026713 -0.875 0 0 242
-0.00287078 -0.0267435 -0.876 0 0 246
-0.00137716 -0.0267741 -0.877 0 0 251
0.000119868 -0.0268046 -0.878 0 0 255
0.00161847 -0.0268046 -0.878 0 0 255
0.00312062 -0.0268351 -0.879 0 4 255
0.00462093 -0.0268351 -0.879 0 4 255
0.00611427 -0.0268046 -0.878 0 0 255
0.00762154 -0.0268351 -0.879 0 4 255
0.00911147 -0.0268046 -0.878 0 0 255
0.0106463 -0.0268962 -0.881 0 17 254
0.0122052 -0.0270183 -0.885 0 45 254
0.0136848 -0.0269572 -0.883 0 30 254
0.0151575 -0.0268962 -0.881 0 17 254
0.016699 -0.0269572 -0.883 0 30 254
0.0182474 -0.0270183 -0.885 0 45 254
0.0198249 -0.0271099 -0.888 0 75 255
0.0214848 -0.0272931 -0.894 0 133 255
0.0229335 -0.0272015 -0.891 0 108 255
0.0245092 -0.0272625 -0.893 0 125 255
0.0259751 -0.0272015 -0.891 0 108 255
0.0275712 -0.027276 -0.893 0 125 255
0.0291939 -0.0273676 -0.896 0 146 255
0.0306211 -0.027276 -0.893 0 125 255
0.0321461 -0.027276 -0.893 0 125 255
0.0337464 -0.0273371 -0.895 0 140 255
0.0352748 -0.0273371 -0.895 0 140 255
0.0368443 -0.0273676 -0.896 0 146 255
0.0383744 -0.0273676 -0.896 0 146 255
0.0400826 -0.0274898 -0.9 0 175 255
0.041527 -0.0274287 -0.898 0 160 255
0.0432523 -0.0275509 -0.902 0 190 255
0.044892 -0.027612 -0.904 0 205 255
0.0465898 -0.0277036 -0.907 0 223 255
0.0481084 -0.0276862 -0.906 0 218 255
0.0498207 -0.0277779 -0.909 0 235 255
0.0515433 -0.0278696 -0.912 2 255 251
0.0531597 -0.0279001 -0.913 8 255 245
0.0545997 -0.027839 -0.911 0 250 255
0.0562794 -0.0279001 -0.913 8 255 245
0.0579026 -0.0279307 -0.914 15 255 238
0.0597244 -0.0280529 -0.918 41 254 212
0.0615598 -0.0281752 -0.922 64 255 189
0.0638539 -0.0284959 -0.932 140 255 113
0.0648853 -0.0282513 -0.924 76 255 177
0.0673279 -0.0286182 -0.936 167 255 86
0.0702535 -0.0291686 -0.954 255 233 0
0.07098 -0.0288017 -0.942 209 255 44
0.0774451 -0.0307279 -1.005 231 0 0
0.079163 -0.0307279 -1.005 231 0 0
-0.0656388 -0.0295731 -0.916 28 255 225
-0.0634435 -0.0292826 -0.907 0 223 255
-0.0618248 -0.0292503 -0.906 0 218 255
-0.0610744 -0.0296377 -0.918 41 254 212
-0.0590848 -0.0294283 -0.912 2 255 251
-0.0572743 -0.0292992 -0.908 0 229 255
-0.0556003 -0.0292347 -0.906 0 218 255
-0.0540524 -0.0292347 -0.906 0 218 255
-0.0523886 -0.0291701 -0.904 0 205 255
-0.0508441 -0.0291701 -0.904 0 205 255
-0.049136 -0.0290733 -0.901 0 182 255
-0.0474382 -0.0289765 -0.898 0 160 255
-0.045904 -0.0289765 -0.898 0 160 255
-0.0442993 -0.0289305 -0.897 0 153 254
-0.0426245 -0.0288338 -0.894 0 133 255
-0.0410059 -0.0287693 -0.892 0 116 255
-0.0393498 -0.0286725 -0.889 0 87 255
-0.0380019 -0.0288015 -0.893 0 125 255
-0.036191 -0.0285757 -0.886 0 53 254
-0.0347955 -0.0286725 -0.889 0 87 255
-0.0332773 -0.0286725 -0.889 0 87 255
-0.0317235 -0.0286402 -0.888 0 75 255
-0.0302071 -0.0286402 -0.888 0 75 255
-0.0286906 -0.0286402 -0.888 0 75 255
-0.0271742 -0.0286402 -0.888 0 75 255
-0.0256289 -0.028608 -0.887 0 63 255
-0.0241023 -0.0285939 -0.887 0 63 255
-0.0225629 -0.0285616 -0.886 0 53 254
-0.0210506 -0.0285616 -0.886 0 53 254
-0.0194943 -0.0284971 -0.884 0 38 254
-0.0180058 -0.0285294 -0.885 0 45 254
-0.0164766 -0.0284971 -0.884 0 38 254
-0.0149339 -0.0284327 -0.882 0 23 255
-0.0134284 -0.0284327 -0.882 0 23 255
-0.011923 -0.0284327 -0.882 0 23 255
-0.0104176 -0.0284327 -0.882 0 23 255
-0.00891215 -0.0284327 -0.882 0 23 255
-0.00739833 -0.0284004 -0.881 0 17 254
-0.00586115 -0.0282393 -0.876 0 0 246
-0.00436098 -0.028207 -0.875 0 0 242
-0.00287078 -0.0282393 -0.876 0 0 246
-0.00137873 -0.0283037 -0.878 0 0 255
0.000119868 -0.0283037 -0.878 0 0 255
0.00161847 -0.0283037 -0.878 0 0 255
0.00311707 -0.0283037 -0.878 0 0 255
0.00461567 -0.0283037 -0.878 0 0 255
0.00611427 -0.0283037 -0.878 0 0 255
0.0076042 -0.0282715 -0.877 0 0 251
0.00912185 -0.028336 -0.879 0 4 255
0.0106584 -0.0284327 -0.882 0 23 255
0.0122052 -0.0285294 -0.885 0 45 254
0.0137158 -0.0285294 -0.885 0 45 254
0.0151919 -0.0284649 -0.883 0 30 254
0.0167179 -0.0284971 -0.884 0 38 254
0.018268 -0.0285616 -0.886 0 53 254
0.0198249 -0.0286261 -0.888 0 75 255
0.0213406 -0.0286261 -0.888 0 75 255
0.0229335 -0.0287228 -0.891 0 108 255
0.0244817 -0.028755 -0.892 0 116 255
0.0260462 -0.0288015 -0.893 0 125 255
0.0275094 -0.028737 -0.891 0 108 255
0.029031 -0.028737 -0.891 0 108 255
0.0306554 -0.0288338 -0.894 0 133 255
0.0321821 -0.0288338 -0.894 0 133 255
0.0337464 -0.028866 -0.895 0 140 255
0.0352748 -0.028866 -0.895 0 140 255
0.0368854 -0.0289305 -0.897 0 153 254
0.0385029 -0.028995 -0.899 0 167 255
0.0400826 -0.0290273 -0.9 0 175 255
0.0416195 -0.0290273 -0.9 0 175 255
0.0432044 -0.0290595 -0.901 0 182 255
0.044892 -0.0291563 -0.904 0 205 255
0.0465091 -0.0292024 -0.905 0 212 255
0.0481084 -0.0292347 -0.906 0 218 255
0.0498207 -0.0293315 -0.909 0 235 255
0.0515433 -0.0294283 -0.912 2 255 251
0.0531597 -0.0294605 -0.913 8 255 245
0.0547195 -0.0294605 -0.913 8 255 245
0.056341 -0.0294928 -0.914 15 255 238
0.0580293 -0.0295573 -0.916 28 255 225
0.0597894 -0.0296541 -0.919 47 255 206
0.0616595 -0.0297991 -0.923 70 255 183
0.0637854 -0.0300574 -0.931 133 255 120
0.0661493 -0.0304125 -0.942 209 255 44
0.0673999 -0.0302511 -0.937 175 255 78
0.0703271 -0.0308322 -0.955 255 230 0
0.072261 -0.0309614 -0.959 255 212 0
0.0778304 -0.0326079 -1.01 215 0 0
0.0788855 -0.0323328 -1.001 250 0 0
-0.0667137 -0.0316494 -0.931 133 255 120
-0.0639331 -0.0310715 -0.914 15 255 238
-0.0618248 -0.0307995 -0.906 0 218 255
-0.0598769 -0.0305956 -0.9 0 175 255
-0.0592143 -0.0310549 -0.914 15 255 238
-0.0574005 -0.030919 -0.91 0 242 255
-0.055723 -0.0308511 -0.908 0 229 255
-0.054112 -0.0308171 -0.907 0 223 255
-0.0524465 -0.0307491 -0.905 0 212 255
-0.0508441 -0.0307152 -0.904 0 205 255
-0.0490815 -0.0305792 -0.9 0 175 255
-0.0475438 -0.0305792 -0.9 0 175 255
-0.045904 -0.0305113 -0.898 0 160 255
-0.0442993 -0.0304628 -0.897 0 153 254
-0.0427198 -0.0304289 -0.896 0 146 255
-0.0410518 -0.030327 -0.893 0 125 255
-0.0394384 -0.0302591 -0.891 0 108 255
-0.0379594 -0.030293 -0.892 0 116 255
-0.0363544 -0.0302251 -0.89 0 99 255
-0.034678 -0.0300893 -0.886 0 53 254
-0.0332773 -0.0301912 -0.889 0 87 255
-0.0317235 -0.0301572 -0.888 0 75 255
-0.030173 -0.0301232 -0.887 0 63 255
-0.0286906 -0.0301572 -0.888 0 75 255
-0.0271742 -0.0301572 -0.888 0 75 255
-0.0256578 -0.0301572 -0.888 0 75 255
-0.0241142 -0.0301232 -0.887 0 63 255
-0.022574 -0.0300893 -0.886 0 53 254
-0.0210031 -0.0300065 -0.884 0 38 254
-0.0194943 -0.0300065 -0.884 0 38 254
-0.0180058 -0.0300405 -0.885 0 45 254
-0.0164766 -0.0300065 -0.884 0 38 254
-0.0149339 -0.0299386 -0.882 0 23 255
-0.0134284 -0.0299386 -0.882 0 23 255
-0.011923 -0.0299386 -0.882 0 23 255
-0.0104176 -0.0299386 -0.882 0 23 255
-0.00890205 -0.0299047 -0.881 0 17 254
-0.00738993 -0.0298708 -0.88 0 10 255
-0.00587453 -0.0298029 -0.878 0 0 255
-0.00437095 -0.0297689 -0.877 0 0 251
-0.00287733 -0.0298029 -0.878 0 0 255
-0.00137873 -0.0298029 -0.878 0 0 255
0.000119868 -0.0298029 -0.878 0 0 255
0.00161847 -0.0298029 -0.878 0 0 255
0.00311707 -0.0298029 -0.878 0 0 255
0.00461567 -0.0298029 -0.878 0 0 255
0.00610731 -0.0297689 -0.877 0 0 251
0.0076042 -0.0297689 -0.877 0 0 251
0.00912185 -0.0298368 -0.879 0 4 255
0.0106342 -0.0298708 -0.88 0 10 255
0.0122052 -0.0300405 -0.885 0 45 254
0.0137158 -0.0300405 -0.885 0 45 254
0.0152091 -0.0300065 -0.884 0 38 254
0.0167558 -0.0300744 -0.886 0 53 254
0.0183093 -0.0301423 -0.888 0 75 255
0.0198249 -0.0301423 -0.888 0 75 255
0.0213646 -0.0301762 -0.889 0 87 255
0.0228933 -0.0301912 -0.889 0 87 255
0.0244664 -0.0302591 -0.891 0 108 255
0.0260171 -0.030293 -0.892 0 116 255
0.0275712 -0.030327 -0.893 0 125 255
0.0289984 -0.0302251 -0.89 0 99 255
0.0305525 -0.0302591 -0.891 0 108 255
0.0322541 -0.0304289 -0.896 0 146 255
0.0338218 -0.0304628 -0.897 0 153 254
0.0353536 -0.0304628 -0.897 0 153 254
0.0370088 -0.0305647 -0.9 0 175 255
0.0385885 -0.0305987 -0.901 0 182 255
0.0402162 -0.0306666 -0.903 0 197 254
0.0416657 -0.0305987 -0.901 0 182 255
0.0431085 -0.0305308 -0.899 0 167 255
0.044963 -0.0307491 -0.905 0 212 255
0.0465091 -0.0307491 -0.905 0 212 255
0.0480022 -0.0307152 -0.904 0 205 255
0.0496563 -0.0307831 -0.906 0 218 255
0.0514868 -0.030953 -0.911 0 250 255
0.0531597 -0.0310209 -0.913 8 255 245
0.0548394 -0.0310889 -0.915 21 255 232
0.0564643 -0.0311229 -0.916 28 255 225
0.058156 -0.0311908 -0.918 41 254 212
0.0599195 -0.0312928 -0.921 59 255 194
0.0610583 -0.0310715 -0.914 15 255 238
0.0631688 -0.0313435 -0.922 64 255 189
0.0659386 -0.0319214 -0.939 189 255 64
0.0674718 -0.0318874 -0.938 183 255 70
0.0708426 -0.0327033 -0.962 255 196 0
0.073768 -0.0332812 -0.979 255 120 0
0.0771368 -0.0340291 -1.001 250 0 0
0.0792008 -0.0341813 -1.005 231 0 0
0.0818857 -0.0345895 -1.017 193 0 0
-0.0659255 -0.0328487 -0.92 54 255 199
-0.0633735 -0.0323488 -0.906 0 218 255
-0.0620295 -0.0324559 -0.909 0 235 255
-0.0606753 -0.032563 -0.912 2 255 251
-0.0591811 -0.0325988 -0.913 8 255 245
-0.0574005 -0.0324743 -0.91 0 242 255
-0.055723 -0.0324029 -0.908 0 229 255
-0.054112 -0.0323672 -0.907 0 223 255
-0.0525045 -0.0323316 -0.906 0 218 255
-0.0509003 -0.0322959 -0.905 0 212 255
-0.0490815 -0.0321174 -0.9 0 175 255
-0.047491 -0.0320818 -0.899 0 167 255
-0.0460062 -0.0321174 -0.9 0 175 255
-0.0444192 -0.0320818 -0.899 0 167 255
-0.0428629 -0.0320665 -0.899 0 167 255
-0.0410978 -0.0318882 -0.894 0 133 255
-0.0395711 -0.0318882 -0.894 0 133 255
-0.0379168 -0.0317812 -0.891 0 108 255
-0.0365178 -0.0318882 -0.894 0 133 255
-0.0347172 -0.0316385 -0.887 0 63 255
-0.0332773 -0.0317098 -0.889 0 87 255
-0.0317235 -0.0316742 -0.888 0 75 255
-0.0302071 -0.0316742 -0.888 0 75 255
-0.0286906 -0.0316742 -0.888 0 75 255
-0.0272048 -0.0317098 -0.889 0 87 255
-0.0256578 -0.0316742 -0.888 0 75 255
-0.0241142 -0.0316385 -0.887 0 63 255
-0.022625 -0.0316742 -0.888 0 75 255
-0.0210848 -0.0316385 -0.887 0 63 255
-0.0195825 -0.0316585 -0.888 0 75 255
-0.0180464 -0.0316229 -0.887 0 63 255
-0.0164579 -0.0314803 -0.883 0 30 254
-0.0149677 -0.0315159 -0.884 0 38 254
-0.0134437 -0.0314803 -0.883 0 30 254
-0.0119365 -0.0314803 -0.883 0 30 254
-0.0104176 -0.0314446 -0.882 0 23 255
-0.00890205 -0.031409 -0.881 0 17 254
-0.00738153 -0.0313377 -0.879 0 4 255
-0.00586784 -0.0312664 -0.877 0 0 251
-0.00436597 -0.0312307 -0.876 0 0 246
-0.00287078 -0.0312307 -0.876 0 0 246
-0.00137716 -0.0312664 -0.877 0 0 251
0.000119731 -0.0312664 -0.877 0 0 251
0.00161662 -0.0312664 -0.877 0 0 251
0.00310997 -0.0312307 -0.876 0 0 246
0.00461041 -0.0312664 -0.877 0 0 251
0.00609338 -0.0311951 -0.875 0 0 242
0.00759553 -0.0312307 -0.876 0 0 246
0.00912185 -0.0313377 -0.879 0 4 255
0.0106463 -0.031409 -0.881 0 17 254
0.0121914 -0.0315159 -0.884 0 38 254
0.0137003 -0.0315159 -0.884 0 38 254
0.0152263 -0.0315516 -0.885 0 45 254
0.0167558 -0.0315872 -0.886 0 53 254
0.018268 -0.0315872 -0.886 0 53 254
0.0197803 -0.0315872 -0.886 0 53 254
0.0213511 -0.0316742 -0.888 0 75 255
0.0229191 -0.0317455 -0.89 0 99 255
0.024384 -0.0316742 -0.888 0 75 255
0.0259587 -0.0317455 -0.89 0 99 255
0.0274786 -0.0317455 -0.89 0 99 255
0.0291287 -0.0318882 -0.894 0 133 255
0.0305868 -0.0318168 -0.892 0 116 255
0.0322181 -0.0319238 -0.895 0 140 255
0.0338218 -0.0319952 -0.897 0 153 254
0.0353142 -0.0319595 -0.896 0 146 255
0.0370499 -0.0321379 -0.901 0 182 255
0.0385885 -0.0321379 -0.901 0 182 255
0.0402162 -0.0322092 -0.903 0 197 254
0.041712 -0.0321735 -0.902 0 190 255
0.0433482 -0.0322449 -0.904 0 205 255
0.044963 -0.0322959 -0.905 0 212 255
0.0464064 -0.0322245 -0.903 0 197 254
0.0479491 -0.0322245 -0.903 0 197 254
0.0497111 -0.0323672 -0.907 0 223 255
0.0516563 -0.032617 -0.914 15 255 238
0.0532761 -0.0326527 -0.915 21 255 232
0.0548394 -0.0326527 -0.915 21 255 232
0.0565259 -0.0327241 -0.917 34 255 219
0.0582827 -0.0328312 -0.92 54 255 199
0.0599515 -0.0328844 -0.921 59 255 194
0.0613923 -0.032813 -0.919 47 255 206
0.0629632 -0.032813 -0.919 47 255 206
0.0663599 -0.0337413 -0.945 225 255 28
0.0676157 -0.0335628 -0.94 196 255 57
0.071579 -0.0347054 -0.972 255 154 0
0.073768 -0.0349553 -0.979 255 120 0
0.0766745 -0.0355266 -0.995 255 36 0
0.0784127 -0.0355435 -0.995 255 36 0
0.0815637 -0.0361865 -1.013 205 0 0
-0.0642829 -0.0343845 -0.919 47 255 206
-0.061893 -0.0339355 -0.907 0 223 255
-0.0603426 -0.0339355 -0.907 0 223 255
-0.0593108 -0.0342348 -0.915 21 255 232
-0.0574005 -0.0340296 -0.91 0 242 255
-0.055723 -0.0339548 -0.908 0 229 255
-0.054112 -0.0339174 -0.907 0 223 255
-0.0524465 -0.0338426 -0.905 0 212 255
-0.0509003 -0.0338426 -0.905 0 212 255
-0.0490815 -0.0336556 -0.9 0 175 255
-0.047491 -0.0336182 -0.899 0 167 255
-0.0460062 -0.0336556 -0.9 0 175 255
-0.0444192 -0.0336182 -0.899 0 167 255
-0.0428355 -0.0335808 -0.898 0 160 255
-0.0412357 -0.0335275 -0.897 0 153 254
-0.0395269 -0.033378 -0.893 0 125 255
-0.0379168 -0.0333033 -0.891 0 108 255
-0.0363953 -0.0333033 -0.891 0 108 255
-0.0348737 -0.0333033 -0.891 0 108 255
-0.0332773 -0.0332285 -0.889 0 87 255
-0.0317592 -0.0332285 -0.889 0 87 255
-0.0302071 -0.0331911 -0.888 0 75 255
-0.0286906 -0.0331911 -0.888 0 75 255
-0.0272048 -0.0332285 -0.889 0 87 255
-0.0256 -0.0331164 -0.886 0 53 254
-0.0242229 -0.0333033 -0.891 0 108 255
-0.0226505 -0.0332285 -0.889 0 87 255
-0.0211323 -0.0332285 -0.889 0 87 255
-0.0196363 -0.0332659 -0.89 0 99 255
-0.0180961 -0.0332285 -0.889 0 87 255
-0.0164766 -0.0330253 -0.884 0 38 254
-0.0149847 -0.0330627 -0.885 0 45 254
-0.0134589 -0.0330253 -0.884 0 38 254
-0.01195 -0.0330253 -0.884 0 38 254
-0.0104058 -0.0329132 -0.881 0 17 254
-0.00891215 -0.0329506 -0.882 0 23 255
-0.00740673 -0.0329506 -0.882 0 23 255
-0.00587453 -0.0328011 -0.878 0 0 255
-0.00438092 -0.0328385 -0.879 0 4 255
-0.0028675 -0.0326891 -0.875 0 0 242
-0.00137559 -0.0327264 -0.876 0 0 246
0.000119322 -0.0326517 -0.874 0 0 236
0.00161294 -0.0326891 -0.875 0 0 242
0.00310997 -0.0327264 -0.876 0 0 246
0.00460515 -0.0327264 -0.876 0 0 246
0.00610034 -0.0327264 -0.876 0 0 246
0.0076042 -0.0327638 -0.877 0 0 251
0.00911147 -0.0328011 -0.878 0 0 255
0.0106101 -0.0328011 -0.878 0 0 255
0.0121776 -0.0329879 -0.883 0 30 254
0.0137158 -0.0330627 -0.885 0 45 254
0.0152607 -0.0331374 -0.887 0 63 255
0.0167558 -0.0331 -0.886 0 53 254
0.018277 -0.0331164 -0.886 0 53 254
0.0197901 -0.0331164 -0.886 0 53 254
0.0213752 -0.0332285 -0.889 0 87 255
0.0229191 -0.0332659 -0.89 0 99 255
0.0244389 -0.0332659 -0.89 0 99 255
0.0260171 -0.0333406 -0.892 0 116 255
0.0275403 -0.0333406 -0.892 0 116 255
0.029031 -0.0333033 -0.891 0 108 255
0.0306554 -0.0334154 -0.894 0 133 255
0.0322541 -0.0334901 -0.896 0 146 255
0.0338595 -0.0335649 -0.898 0 160 255
0.0353536 -0.0335275 -0.897 0 153 254
0.0370088 -0.0336397 -0.9 0 175 255
0.0385457 -0.0336397 -0.9 0 175 255
0.0401271 -0.033677 -0.901 0 182 255
0.041712 -0.0337144 -0.902 0 190 255
0.0434168 -0.0338426 -0.905 0 212 255
0.0449133 -0.0338052 -0.904 0 205 255
0.0464064 -0.0337678 -0.903 0 197 254
0.0480022 -0.0338052 -0.904 0 205 255
0.05004 -0.0341418 -0.913 8 255 245
0.0517129 -0.0342166 -0.915 21 255 232
0.0532761 -0.0342166 -0.915 21 255 232
0.0548993 -0.034254 -0.916 28 255 225
0.0565259 -0.0342913 -0.917 34 255 219
0.0583138 -0.0344219 -0.92 54 255 199
0.0600817 -0.0345341 -0.923 70 255 183
0.0618599 -0.0346464 -0.926 92 255 161
0.0637169 -0.0347961 -0.93 125 255 128
0.0658684 -0.0350954 -0.938 183 255 70
0.0676157 -0.0351702 -0.94 196 255 57
0.0718736 -0.0365171 -0.976 255 133 0
0.0741448 -0.0368165 -0.984 255 97 0
0.0759401 -0.0368715 -0.985 255 92 0
0.0777034 -0.0369089 -0.986 255 86 0
-0.0642829 -0.035956 -0.919 47 255 206
-0.0619613 -0.0355256 -0.908 0 229 255
-0.0606753 -0.0356821 -0.912 2 255 251
-0.0589218 -0.0355647 -0.909 0 235 255
-0.0576204 -0.0357212 -0.913 8 255 245
-0.055723 -0.0355067 -0.908 0 229 255
-0.0541717 -0.0355067 -0.908 0 229 255
-0.0525624 -0.0354676 -0.907 0 223 255
-0.0509566 -0.0354284 -0.906 0 218 255
-0.0493542 -0.0353893 -0.905 0 212 255
-0.0475967 -0.0352329 -0.901 0 182 255
-0.0460062 -0.0351938 -0.9 0 175 255
-0.0444686 -0.0351938 -0.9 0 175 255
-0.0427878 -0.0350765 -0.897 0 153 254
-0.0412553 -0.0350765 -0.897 0 153 254
-0.0395711 -0.0349426 -0.894 0 133 255
-0.0380019 -0.0349035 -0.893 0 125 255
-0.036477 -0.0349035 -0.893 0 125 255
-0.0347955 -0.0347472 -0.889 0 87 255
-0.0335019 -0.0349817 -0.895 0 140 255
-0.0317592 -0.0347472 -0.889 0 87 255
-0.0302411 -0.0347472 -0.889 0 87 255
-0.028723 -0.0347472 -0.889 0 87 255
-0.0272048 -0.0347472 -0.889 0 87 255
-0.0258312 -0.0349426 -0.894 0 133 255
-0.0242229 -0.0348253 -0.891 0 108 255
-0.0226505 -0.0347472 -0.889 0 87 255
-0.0211799 -0.0348253 -0.891 0 108 255
-0.0196804 -0.0348644 -0.892 0 116 255
-0.0180554 -0.034669 -0.887 0 63 255
-0.0165034 -0.0345908 -0.885 0 45 254
-0.0149582 -0.0345127 -0.883 0 30 254
-0.0134284 -0.0344565 -0.882 0 23 255
-0.0119365 -0.0344956 -0.883 0 30 254
-0.0104294 -0.0344956 -0.883 0 30 254
-0.00891215 -0.0344565 -0.882 0 23 255
-0.00740673 -0.0344565 -0.882 0 23 255
-0.00589461 -0.0344175 -0.881 0 17 254
-0.00438092 -0.0343393 -0.879 0 4 255
-0.00288389 -0.0343784 -0.88 0 10 255
-0.00137873 -0.0343003 -0.878 0 0 255
0.000120004 -0.0343393 -0.879 0 4 255
0.00161847 -0.0343003 -0.878 0 0 255
0.00311352 -0.0342612 -0.877 0 0 251
0.00461041 -0.0342612 -0.877 0 0 251
0.00610731 -0.0342612 -0.877 0 0 251
0.00763021 -0.0343784 -0.88 0 10 255
0.00912185 -0.0343393 -0.879 0 4 255
0.0106463 -0.0344175 -0.881 0 17 254
0.0122052 -0.0345737 -0.885 0 45 254
0.0137158 -0.0345737 -0.885 0 45 254
0.015251 -0.0346299 -0.886 0 53 254
0.0168208 -0.0347472 -0.889 0 87 255
0.0182977 -0.034669 -0.887 0 63 255
0.0198571 -0.0347472 -0.889 0 87 255
0.0214473 -0.0348644 -0.892 0 116 255
0.0229191 -0.0347863 -0.89 0 99 255
0.0244664 -0.0348253 -0.891 0 108 255
0.0259879 -0.0348253 -0.891 0 108 255
0.0275403 -0.0348644 -0.892 0 116 255
0.0292265 -0.0350599 -0.897 0 153 254
0.0306554 -0.0349426 -0.894 0 133 255
0.032434 -0.0352162 -0.901 0 182 255
0.0339727 -0.0352162 -0.901 0 182 255
0.0355901 -0.0352944 -0.903 0 197 254
0.0370088 -0.0351771 -0.9 0 175 255
0.03846 -0.0350989 -0.898 0 160 255
0.0400826 -0.0351771 -0.9 0 175 255
0.0417318 -0.035272 -0.902 0 190 255
0.0434168 -0.0353893 -0.905 0 212 255
0.0448139 -0.035272 -0.902 0 190 255
0.046355 -0.035272 -0.902 0 190 255
0.0482146 -0.0355067 -0.908 0 229 255
0.0500948 -0.0357413 -0.914 15 255 238
0.0517129 -0.0357804 -0.915 21 255 232
0.0532761 -0.0357804 -0.915 21 255 232
0.0549593 -0.0358586 -0.917 34 255 219
0.0565876 -0.0358977 -0.918 41 254 212
0.0583772 -0.0360342 -0.921 59 255 194
0.0601468 -0.0361516 -0.924 76 255 177
0.0620603 -0.0363472 -0.929 116 255 137
0.0637169 -0.0363864 -0.93 125 255 128
0.0660791 -0.0368167 -0.941 202 255 51
0.0679753 -0.0369732 -0.945 225 255 28
0.0719472 -0.0382252 -0.977 255 129 0
0.0749736 -0.0389295 -0.995 255 36 0
0.0770965 -0.0391438 -1 255 2 0
0.0789643 -0.0392221 -1.002 244 0 0
0.080839 -0.0393004 -1.004 236 0 0
-0.0617566 -0.0369558 -0.905 0 212 255
-0.0604092 -0.0370783 -0.908 0 229 255
-0.0591811 -0.0372825 -0.913 8 255 245
-0.0577467 -0.0373642 -0.915 21 255 232
-0.0558755 -0.03716 -0.91 0 242 255
-0.0541717 -0.0370585 -0.908 0 229 255
-0.0526204 -0.0370585 -0.908 0 229 255
-0.0510691 -0.0370585 -0.908 0 229 255
-0.0494087 -0.0369769 -0.906 0 218 255
-0.0477023 -0.0368545 -0.903 0 197 254
-0.0461596 -0.0368545 -0.903 0 197 254
-0.0444192 -0.0366912 -0.899 0 167 255
-0.0427878 -0.0366096 -0.897 0 153 254
-0.0412093 -0.0365688 -0.896 0 146 255
-0.0396342 -0.0365279 -0.895 0 140 255
-0.0380445 -0.0364698 -0.894 0 133 255
-0.0363953 -0.0363474 -0.891 0 108 255
-0.0349912 -0.0364698 -0.894 0 133 255
-0.0332773 -0.0362658 -0.889 0 87 255
-0.0317235 -0.0362251 -0.888 0 75 255
