ply
format ascii 1.0
element vertex 1238
property float32 x
property float32 y
property float32 z
property uchar diffuse_red
property uchar diffuse_green
property uchar diffuse_blue
end_header
-0.122857 -0.146198 -0.901 91 255 162
-0.121974 -0.14701 -0.906 147 255 106
-0.119544 -0.145954 -0.9 82 255 171
-0.118645 -0.146765 -0.905 138 255 115
-0.11747 -0.147251 -0.908 167 255 86
-0.115902 -0.147251 -0.908 167 255 86
-0.114146 -0.147008 -0.907 157 255 96
-0.113077 -0.147657 -0.911 204 255 49
-0.111872 -0.148143 -0.914 245 255 8
-0.109932 -0.147657 -0.911 204 255 49
-0.108302 -0.147578 -0.911 204 255 49
-0.106848 -0.14774 -0.912 217 255 36
-0.105275 -0.14774 -0.912 217 255 36
-0.103702 -0.14774 -0.912 217 255 36
-0.102464 -0.148226 -0.915 255 250 0
-0.100957 -0.148329 -0.916 255 236 0
-0.0994857 -0.148491 -0.917 255 223 0
-0.0979045 -0.148491 -0.917 255 223 0
-0.0962184 -0.148329 -0.916 255 236 0
-0.0948456 -0.148653 -0.918 255 210 0
-0.0931134 -0.148415 -0.917 255 223 0
-0.0913335 -0.148091 -0.915 255 250 0
-0.0900508 -0.148577 -0.918 255 210 0
-0.0883724 -0.148415 -0.917 255 223 0
-0.0866028 -0.148091 -0.915 255 250 0
-0.0849731 -0.148 -0.915 255 250 0
-0.0833972 -0.148 -0.915 255 250 0
-0.0820001 -0.148323 -0.917 255 223 0
-0.0805085 -0.148485 -0.918 255 210 0
-0.0790134 -0.148647 -0.919 255 197 0
-0.0774306 -0.148647 -0.919 255 197 0
-0.0758478 -0.148647 -0.919 255 197 0
-0.07431 -0.148737 -0.92 255 185 0
-0.0727262 -0.148737 -0.92 255 185 0
-0.0711425 -0.148737 -0.92 255 185 0
-0.0696343 -0.148898 -0.921 255 177 0
-0.0678272 -0.148413 -0.918 255 210 0
-0.0661025 -0.14809 -0.916 255 236 0
-0.0646363 -0.148344 -0.918 255 210 0
-0.0629193 -0.148021 -0.916 255 236 0
-0.0612762 -0.147859 -0.915 255 250 0
-0.0596366 -0.147697 -0.914 245 255 8
-0.0581909 -0.148021 -0.916 255 236 0
-0.0564294 -0.147536 -0.913 230 255 23
-0.0547983 -0.147374 -0.912 217 255 36
-0.0533458 -0.147697 -0.914 245 255 8
-0.0517731 -0.147697 -0.914 245 255 8
-0.0502269 -0.147775 -0.915 255 250 0
-0.0486002 -0.147614 -0.914 245 255 8
-0.0470798 -0.147775 -0.915 255 250 0
-0.0455063 -0.147775 -0.915 255 250 0
-0.0438848 -0.147614 -0.914 245 255 8
-0.042313 -0.147614 -0.914 245 255 8
-0.0408303 -0.147937 -0.916 255 236 0
-0.0392551 -0.147937 -0.916 255 236 0
-0.0376798 -0.147937 -0.916 255 236 0
-0.0361046 -0.147937 -0.916 255 236 0
-0.0345293 -0.147937 -0.916 255 236 0
-0.0329397 -0.147872 -0.916 255 236 0
-0.0313651 -0.147872 -0.916 255 236 0
-0.029758 -0.147711 -0.915 255 250 0
-0.0281236 -0.147388 -0.913 230 255 23
-0.0266415 -0.147872 -0.916 255 236 0
-0.0252311 -0.148841 -0.922 255 168 0
-0.0236462 -0.148841 -0.922 255 168 0
-0.0220614 -0.148841 -0.922 255 168 0
-0.0204765 -0.148841 -0.922 255 168 0
-0.0188302 -0.148356 -0.919 255 197 0
-0.0172505 -0.148356 -0.919 255 197 0
-0.0156707 -0.148356 -0.919 255 197 0
-0.0141064 -0.148518 -0.92 255 185 0
-0.0125113 -0.148356 -0.919 255 197 0
-0.0109435 -0.148518 -0.92 255 185 0
-0.00936208 -0.148518 -0.92 255 185 0
-0.00778911 -0.148679 -0.921 255 177 0
-0.00619922 -0.148518 -0.92 255 185 0
-0.00461779 -0.148518 -0.92 255 185 0
-0.00303636 -0.148518 -0.92 255 185 0
-0.00145494 -0.148518 -0.92 255 185 0
0.000126493 -0.148518 -0.92 255 185 0
0.00170978 -0.148679 -0.921 255 177 0
0.00328935 -0.148518 -0.92 255 185 0
0.00487078 -0.148518 -0.92 255 185 0
0.00647325 -0.149002 -0.923 255 160 0
0.00804237 -0.148679 -0.921 255 177 0
0.00969868 -0.149809 -0.928 255 111 0
0.0112695 -0.149486 -0.926 255 131 0
0.0129168 -0.150132 -0.93 255 92 0
0.0144998 -0.149971 -0.929 255 102 0
0.0161834 -0.150778 -0.934 255 63 0
0.017846 -0.151262 -0.937 255 41 0
0.0194566 -0.151262 -0.937 255 41 0
0.0211123 -0.151585 -0.939 255 26 0
0.0227506 -0.151746 -0.94 255 18 0
0.0245219 -0.152715 -0.946 241 0 0
0.0262586 -0.153361 -0.95 220 0 0
0.0279503 -0.153684 -0.952 209 0 0
0.029711 -0.154329 -0.956 197 0 0
0.0314527 -0.154814 -0.959 188 0 0
0.0333083 -0.155782 -0.965 169 0 0
0.0348374 -0.155204 -0.961 181 0 0
0.0368318 -0.156658 -0.97 160 0 0
-0.144319 -0.157592 -0.96 185 0 0
-0.140429 -0.155129 -0.945 246 0 0
-0.136298 -0.152338 -0.928 255 111 0
-0.133163 -0.150608 -0.918 255 210 0
-0.131433 -0.150444 -0.917 255 223 0
-0.129565 -0.150116 -0.915 255 250 0
-0.126445 -0.148312 -0.904 126 255 127
-0.122619 -0.145624 -0.888 0 234 255
-0.12163 -0.14628 -0.892 17 254 236
-0.120897 -0.147264 -0.898 65 254 188
-0.119079 -0.146936 -0.896 51 255 202
-0.117727 -0.147181 -0.898 65 254 188
-0.117341 -0.148656 -0.907 157 255 96
-0.115775 -0.148656 -0.907 157 255 96
-0.11446 -0.148984 -0.909 178 255 75
-0.112829 -0.148902 -0.909 178 255 75
-0.111505 -0.149229 -0.911 204 255 49
-0.109932 -0.149229 -0.911 204 255 49
-0.10836 -0.149229 -0.911 204 255 49
-0.106788 -0.149229 -0.911 204 255 49
-0.105159 -0.14915 -0.911 204 255 49
-0.103588 -0.14915 -0.911 204 255 49
-0.102016 -0.14915 -0.911 204 255 49
-0.100555 -0.149313 -0.912 217 255 36
-0.0993077 -0.149804 -0.915 255 250 0
-0.0977978 -0.149909 -0.916 255 236 0
-0.0960083 -0.149582 -0.914 245 255 8
-0.0942257 -0.149255 -0.912 217 255 36
-0.0926531 -0.149255 -0.912 217 255 36
-0.0911805 -0.149418 -0.913 230 255 23
-0.0896585 -0.149505 -0.914 245 255 8
-0.0880833 -0.149505 -0.914 245 255 8
-0.0865081 -0.149505 -0.914 245 255 8
-0.08484 -0.149342 -0.913 230 255 23
-0.0832666 -0.149342 -0.913 230 255 23
-0.0819107 -0.149739 -0.916 255 236 0
-0.0805085 -0.150066 -0.918 255 210 0
-0.0788414 -0.149903 -0.917 255 223 0
-0.0772621 -0.149903 -0.917 255 223 0
-0.0758478 -0.15023 -0.919 255 197 0
-0.074265 -0.15023 -0.919 255 197 0
-0.0726822 -0.15023 -0.919 255 197 0
-0.0709878 -0.149994 -0.918 255 210 0
-0.0694075 -0.149994 -0.918 255 210 0
-0.0677533 -0.149831 -0.917 255 223 0
-0.0659582 -0.149341 -0.914 245 255 8
-0.0645961 -0.149831 -0.917 255 223 0
-0.0628801 -0.149504 -0.915 255 250 0
-0.0611709 -0.149177 -0.913 230 255 23
-0.0597018 -0.149434 -0.915 255 250 0
-0.0580639 -0.149271 -0.914 245 255 8
-0.0564294 -0.149107 -0.913 230 255 23
-0.0547983 -0.148944 -0.912 217 255 36
-0.0533458 -0.149271 -0.914 245 255 8
-0.0517164 -0.149107 -0.913 230 255 23
-0.0502004 -0.149271 -0.914 245 255 8
-0.0486277 -0.149271 -0.914 245 255 8
-0.047055 -0.149271 -0.914 245 255 8
-0.0454068 -0.149023 -0.913 230 255 23
-0.0438848 -0.149186 -0.914 245 255 8
-0.0422204 -0.14886 -0.912 217 255 36
-0.0408303 -0.149513 -0.916 255 236 0
-0.0392551 -0.149513 -0.916 255 236 0
-0.0376387 -0.149349 -0.915 255 250 0
-0.0361046 -0.149513 -0.916 255 236 0
-0.0344916 -0.149349 -0.915 255 250 0
-0.0329181 -0.149349 -0.915 255 250 0
-0.0313446 -0.149349 -0.915 255 250 0
-0.0298036 -0.149513 -0.916 255 236 0
-0.0281667 -0.149186 -0.914 245 255 8
-0.0266531 -0.149513 -0.916 255 236 0
-0.0252148 -0.150329 -0.921 255 177 0
-0.0236462 -0.150426 -0.922 255 168 0
-0.0220374 -0.150263 -0.921 255 177 0
-0.0204543 -0.150263 -0.921 255 177 0
-0.0188097 -0.149773 -0.918 255 210 0
-0.0172505 -0.149937 -0.919 255 197 0
-0.0156707 -0.149937 -0.919 255 197 0
-0.0141064 -0.1501 -0.92 255 185 0
-0.0125386 -0.150263 -0.921 255 177 0
-0.0109554 -0.150263 -0.921 255 177 0
-0.00937226 -0.150263 -0.921 255 177 0
-0.00778911 -0.150263 -0.921 255 177 0
-0.00619922 -0.1501 -0.92 255 185 0
-0.00461277 -0.149937 -0.919 255 197 0
-0.00303636 -0.1501 -0.92 255 185 0
-0.00145494 -0.1501 -0.92 255 185 0
0.000126493 -0.1501 -0.92 255 185 0
0.00170792 -0.1501 -0.92 255 185 0
0.00329293 -0.150263 -0.921 255 177 0
0.00486019 -0.149773 -0.918 255 210 0
0.00648026 -0.150752 -0.924 255 150 0
0.00806857 -0.150752 -0.924 255 150 0
0.00965687 -0.150752 -0.924 255 150 0
0.0112573 -0.150916 -0.925 255 141 0
0.0129446 -0.152058 -0.932 255 76 0
0.0145154 -0.151731 -0.93 255 92 0
0.016218 -0.15271 -0.936 255 48 0
0.017846 -0.152873 -0.937 255 41 0
0.0194982 -0.1532 -0.939 255 26 0
0.0211572 -0.153526 -0.941 255 11 0
0.022799 -0.153689 -0.942 255 3 0
0.0245219 -0.154342 -0.946 241 0 0
0.0262701 -0.155062 -0.95 220 0 0
0.0279919 -0.155552 -0.953 204 0 0
0.029724 -0.156042 -0.956 197 0 0
0.0313681 -0.156042 -0.956 197 0 0
0.0332193 -0.157021 -0.962 178 0 0
0.0351274 -0.158163 -0.969 162 0 0
0.0369457 -0.158816 -0.973 157 0 0
-0.142428 -0.157167 -0.947 236 0 0
-0.139835 -0.156101 -0.941 255 11 0
-0.135564 -0.153115 -0.923 255 160 0
-0.132516 -0.151456 -0.913 230 255 23
-0.13065 -0.151124 -0.911 204 255 49
-0.127866 -0.149709 -0.903 114 255 139
-0.124626 -0.147719 -0.891 6 255 247
-0.123086 -0.147719 -0.891 6 255 247
-0.12163 -0.147821 -0.892 17 254 236
-0.121435 -0.149479 -0.902 102 255 151
-0.119611 -0.149147 -0.9 82 255 171
-0.118318 -0.149479 -0.902 102 255 151
-0.117341 -0.150223 -0.907 157 255 96
-0.116285 -0.150885 -0.911 204 255 49
-0.114208 -0.150223 -0.907 157 255 96
-0.112891 -0.150554 -0.909 178 255 75
-0.111566 -0.150885 -0.911 204 255 49
-0.109812 -0.150637 -0.91 191 255 62
-0.108241 -0.150637 -0.91 191 255 62
-0.106553 -0.150471 -0.909 178 255 75
-0.1051 -0.150637 -0.91 191 255 62
-0.103474 -0.150556 -0.91 191 255 62
-0.101904 -0.150556 -0.91 191 255 62
-0.100445 -0.150722 -0.911 204 255 49
-0.0988736 -0.150722 -0.911 204 255 49
-0.0973022 -0.150722 -0.911 204 255 49
-0.0956931 -0.150662 -0.911 204 255 49
-0.0941223 -0.150662 -0.911 204 255 49
-0.0925515 -0.150662 -0.911 204 255 49
-0.0911805 -0.150993 -0.913 230 255 23
-0.0893118 -0.150497 -0.91 191 255 62
-0.0876978 -0.15042 -0.91 191 255 62
-0.0864135 -0.150916 -0.913 230 255 23
-0.0847471 -0.15075 -0.912 217 255 36
-0.0830842 -0.150585 -0.911 204 255 49
-0.0816932 -0.150916 -0.913 230 255 23
-0.080383 -0.151412 -0.916 255 236 0
-0.0788414 -0.151483 -0.917 255 223 0
-0.0772621 -0.151483 -0.917 255 223 0
-0.0757653 -0.151648 -0.918 255 210 0
-0.0740225 -0.151318 -0.916 255 236 0
-0.0724449 -0.151318 -0.916 255 236 0
-0.0706352 -0.150822 -0.913 230 255 23
-0.0689871 -0.150657 -0.912 217 255 36
-0.0673839 -0.150584 -0.912 217 255 36
-0.0657417 -0.150419 -0.911 204 255 49
-0.0644552 -0.15108 -0.915 255 250 0
-0.0628113 -0.150915 -0.914 245 255 8
-0.0612379 -0.150915 -0.914 245 255 8
-0.0597951 -0.151245 -0.916 255 236 0
-0.0582182 -0.151245 -0.916 255 236 0
-0.0564912 -0.150844 -0.914 245 255 8
-0.0549185 -0.150844 -0.914 245 255 8
-0.0534041 -0.151009 -0.915 255 250 0
-0.0516598 -0.150514 -0.912 217 255 36
-0.0501455 -0.150679 -0.913 230 255 23
-0.0485745 -0.150679 -0.913 230 255 23
-0.0470035 -0.150679 -0.913 230 255 23
-0.0455321 -0.151009 -0.915 255 250 0
-0.0439577 -0.151009 -0.915 255 250 0
-0.0424296 -0.151174 -0.916 255 236 0
-0.0408303 -0.151088 -0.916 255 236 0
-0.0392122 -0.150923 -0.915 255 250 0
-0.0375976 -0.150759 -0.914 245 255 8
-0.0360652 -0.150923 -0.915 255 250 0
-0.0345293 -0.151088 -0.916 255 236 0
-0.033026 -0.151418 -0.918 255 210 0
-0.0314816 -0.151583 -0.919 255 197 0
-0.0298361 -0.151253 -0.917 255 223 0
-0.0282284 -0.151088 -0.916 255 236 0
-0.0267404 -0.151583 -0.919 255 197 0
-0.02516 -0.151583 -0.919 255 197 0
-0.0236053 -0.151748 -0.92 255 185 0
-0.0220232 -0.151748 -0.92 255 185 0
-0.020441 -0.151748 -0.92 255 185 0
-0.0188589 -0.151748 -0.92 255 185 0
-0.0172768 -0.151748 -0.92 255 185 0
-0.0157117 -0.151913 -0.921 255 177 0
-0.0141125 -0.151748 -0.92 255 185 0
-0.0125304 -0.151748 -0.92 255 185 0
-0.0109316 -0.151517 -0.919 255 197 0
-0.00937226 -0.151847 -0.921 255 177 0
-0.00778911 -0.151847 -0.921 255 177 0
-0.00619248 -0.151517 -0.919 255 197 0
-0.00461277 -0.151517 -0.919 255 197 0
-0.00303636 -0.151682 -0.92 255 185 0
-0.00145652 -0.151847 -0.921 255 177 0
0.000126356 -0.151517 -0.919 255 197 0
0.00170792 -0.151682 -0.92 255 185 0
0.00328935 -0.151682 -0.92 255 185 0
0.00489196 -0.152341 -0.924 255 150 0
0.00643818 -0.151352 -0.918 255 210 0
0.00801617 -0.151352 -0.918 255 210 0
0.00965687 -0.152341 -0.924 255 150 0
0.0112452 -0.152341 -0.924 255 150 0
0.0129503 -0.153728 -0.932 255 76 0
0.0145218 -0.153398 -0.93 255 92 0
0.0161558 -0.153728 -0.932 255 76 0
0.0178729 -0.154717 -0.938 255 33 0
0.0195067 -0.154882 -0.939 255 26 0
0.021189 -0.155377 -0.942 255 3 0
0.0228574 -0.155707 -0.944 250 0 0
0.0245586 -0.156202 -0.947 236 0 0
0.0262977 -0.156861 -0.951 214 0 0
0.0279919 -0.157191 -0.953 204 0 0
0.029724 -0.157686 -0.956 197 0 0
0.0314665 -0.158181 -0.959 188 0 0
0.0330812 -0.158016 -0.958 191 0 0
0.0351637 -0.159995 -0.97 160 0 0
0.0373634 -0.162305 -0.984 145 0 0
-0.138969 -0.154949 -0.924 255 150 0
-0.138708 -0.156458 -0.933 255 70 0
-0.135123 -0.154209 -0.92 255 185 0
-0.131935 -0.152365 -0.909 178 255 75
-0.129359 -0.151192 -0.902 102 255 151
-0.126382 -0.149515 -0.892 17 254 236
-0.124207 -0.148758 -0.888 0 234 255
-0.123501 -0.149763 -0.894 38 255 215
-0.122365 -0.150265 -0.897 57 254 196
-0.120545 -0.14993 -0.895 44 255 209
-0.119212 -0.1502 -0.897 57 254 196
-0.118187 -0.15087 -0.901 91 255 162
-0.117148 -0.15154 -0.905 138 255 115
-0.11584 -0.151875 -0.907 157 255 96
-0.114334 -0.151957 -0.908 167 255 86
-0.112891 -0.152124 -0.909 178 255 75
-0.111321 -0.152124 -0.909 178 255 75
-0.109751 -0.152124 -0.909 178 255 75
-0.108241 -0.152208 -0.91 191 255 62
-0.106553 -0.152041 -0.909 178 255 75
-0.104985 -0.152041 -0.909 178 255 75
-0.103416 -0.152041 -0.909 178 255 75
-0.101847 -0.152041 -0.909 178 255 75
-0.100335 -0.152126 -0.91 191 255 62
-0.0987651 -0.152126 -0.91 191 255 62
-0.0970885 -0.151959 -0.909 178 255 75
-0.0956257 -0.152126 -0.91 191 255 62
-0.0939526 -0.151959 -0.909 178 255 75
-0.0923484 -0.151899 -0.909 178 255 75
-0.090781 -0.151899 -0.909 178 255 75
-0.0892136 -0.151899 -0.909 178 255 75
-0.0876463 -0.151899 -0.909 178 255 75
-0.0862683 -0.152234 -0.911 204 255 49
-0.0845613 -0.151989 -0.91 191 255 62
-0.082993 -0.151989 -0.91 191 255 62
-0.0815142 -0.152156 -0.911 204 255 49
-0.0802952 -0.152824 -0.915 255 250 0
-0.0788904 -0.153158 -0.917 255 223 0
-0.0773101 -0.153158 -0.917 255 223 0
-0.0756827 -0.153063 -0.917 255 223 0
-0.0739417 -0.152729 -0.915 255 250 0
-0.0721286 -0.152228 -0.912 217 255 36
-0.0706352 -0.152395 -0.913 230 255 23
-0.0688358 -0.151894 -0.91 191 255 62
-0.0673424 -0.152061 -0.911 204 255 49
-0.0657734 -0.152061 -0.911 204 255 49
-0.064103 -0.151821 -0.91 191 255 62
-0.0628113 -0.152489 -0.914 245 255 8
-0.0611709 -0.152322 -0.913 230 255 23
-0.0596645 -0.152489 -0.914 245 255 8
-0.0581546 -0.152655 -0.915 255 250 0
-0.0565795 -0.152655 -0.915 255 250 0
-0.0549442 -0.152489 -0.914 245 255 8
-0.0533708 -0.152489 -0.914 245 255 8
-0.0517164 -0.15225 -0.913 230 255 23
-0.0502004 -0.152417 -0.914 245 255 8
-0.0486277 -0.152417 -0.914 245 255 8
-0.047055 -0.152417 -0.914 245 255 8
-0.0454823 -0.152417 -0.914 245 255 8
-0.0440057 -0.152751 -0.916 255 236 0
-0.0424296 -0.152751 -0.916 255 236 0
-0.0408088 -0.152584 -0.915 255 250 0
-0.0392773 -0.152751 -0.916 255 236 0
-0.03766 -0.152584 -0.915 255 250 0
-0.036125 -0.152751 -0.916 255 236 0
-0.0346047 -0.152998 -0.918 255 210 0
-0.033062 -0.153164 -0.919 255 197 0
-0.0314816 -0.153164 -0.919 255 197 0
-0.0299012 -0.153164 -0.919 255 197 0
-0.0283208 -0.153164 -0.919 255 197 0
-0.0267404 -0.153164 -0.919 255 197 0
-0.02516 -0.153164 -0.919 255 197 0
-0.023554 -0.152998 -0.918 255 210 0
-0.0219992 -0.153164 -0.919 255 197 0
-0.0204632 -0.153498 -0.921 255 177 0
-0.0188999 -0.153664 -0.922 255 168 0
-0.0172956 -0.153498 -0.921 255 177 0
-0.0157117 -0.153498 -0.921 255 177 0
-0.0141279 -0.153498 -0.921 255 177 0
-0.0125304 -0.153331 -0.92 255 185 0
-0.0109483 -0.153331 -0.92 255 185 0
-0.00937636 -0.153498 -0.921 255 177 0
-0.00779252 -0.153498 -0.921 255 177 0
-0.00620194 -0.153331 -0.92 255 185 0
-0.00461479 -0.153164 -0.919 255 197 0
-0.003041 -0.153498 -0.921 255 177 0
-0.00145874 -0.153664 -0.922 255 168 0
0.000126686 -0.153498 -0.921 255 177 0
0.00171053 -0.153498 -0.921 255 177 0
0.00328364 -0.152998 -0.918 255 210 0
0.00488351 -0.153664 -0.922 255 168 0
0.00646205 -0.153498 -0.921 255 177 0
0.00811578 -0.154831 -0.929 255 102 0
0.00964019 -0.153664 -0.922 255 168 0
0.0112623 -0.154164 -0.925 255 141 0
0.0129503 -0.155331 -0.932 255 76 0
0.014553 -0.155331 -0.932 255 76 0
0.0161558 -0.155331 -0.932 255 76 0
0.0178538 -0.156164 -0.937 255 41 0
0.0195275 -0.156664 -0.94 255 18 0
0.0212115 -0.157164 -0.943 255 0 0
0.02293 -0.157831 -0.947 236 0 0
0.0246104 -0.158164 -0.949 225 0 0
0.0262977 -0.158497 -0.951 214 0 0
0.0279625 -0.158664 -0.952 209 0 0
0.0297551 -0.159497 -0.957 194 0 0
0.0316306 -0.160664 -0.964 172 0 0
0.0331157 -0.159831 -0.959 188 0 0
0.0350912 -0.161331 -0.968 163 0 0
-0.136863 -0.154176 -0.91 191 255 62
-0.136181 -0.155193 -0.916 255 236 0
-0.133861 -0.154346 -0.911 204 255 49
-0.13179 -0.153768 -0.908 167 255 86
-0.128355 -0.151567 -0.895 44 255 209
-0.125674 -0.150212 -0.887 0 226 255
-0.12428 -0.150381 -0.888 0 234 255
-0.122257 -0.149785 -0.885 0 210 255
-0.121 -0.150124 -0.887 0 226 255
-0.121083 -0.152155 -0.899 74 255 179
-0.119795 -0.152493 -0.901 91 255 162
-0.118974 -0.153443 -0.907 157 255 96
-0.117019 -0.152935 -0.904 126 255 127
-0.115584 -0.153104 -0.905 138 255 115
-0.114147 -0.153273 -0.906 147 255 106
-0.112642 -0.153356 -0.907 157 255 96
-0.111198 -0.153525 -0.908 167 255 86
-0.109631 -0.153525 -0.908 167 255 86
-0.107944 -0.153356 -0.907 157 255 96
-0.10626 -0.153187 -0.906 147 255 106
-0.104869 -0.153441 -0.908 167 255 86
-0.103188 -0.153272 -0.907 157 255 96
-0.101623 -0.153272 -0.907 157 255 96
-0.100168 -0.153441 -0.908 167 255 86
-0.098548 -0.153359 -0.908 167 255 86
-0.0969817 -0.153359 -0.908 167 255 86
-0.0954155 -0.153359 -0.908 167 255 86
-0.0937459 -0.15319 -0.907 157 255 96
-0.0921814 -0.15319 -0.907 157 255 96
-0.0906811 -0.153299 -0.908 167 255 86
-0.0892136 -0.153467 -0.909 178 255 75
-0.0876463 -0.153467 -0.909 178 255 75
-0.0860789 -0.153467 -0.909 178 255 75
-0.0846046 -0.153636 -0.91 191 255 62
-0.083218 -0.153974 -0.912 217 255 36
-0.0815142 -0.153726 -0.911 204 255 49
-0.0799442 -0.153726 -0.911 204 255 49
-0.0784602 -0.153895 -0.912 217 255 36
-0.0769728 -0.154064 -0.913 230 255 23
-0.0752342 -0.153726 -0.911 204 255 49
-0.0738259 -0.154064 -0.913 230 255 23
-0.0721286 -0.1538 -0.912 217 255 36
-0.0704805 -0.153631 -0.911 204 255 49
-0.0688358 -0.153462 -0.91 191 255 62
-0.0671946 -0.153294 -0.909 178 255 75
-0.0655568 -0.153125 -0.908 167 255 86
-0.0641339 -0.153462 -0.91 191 255 62
-0.0628416 -0.154137 -0.914 245 255 8
-0.0611709 -0.153894 -0.913 230 255 23
-0.0595992 -0.153894 -0.913 230 255 23
-0.0580275 -0.153894 -0.913 230 255 23
-0.0565795 -0.154231 -0.915 255 250 0
-0.0549442 -0.154063 -0.914 245 255 8
-0.0533708 -0.154063 -0.914 245 255 8
-0.0517973 -0.154063 -0.914 245 255 8
-0.0502239 -0.154063 -0.914 245 255 8
-0.0485973 -0.153894 -0.913 230 255 23
-0.0470035 -0.153822 -0.913 230 255 23
-0.0455321 -0.154159 -0.915 255 250 0
-0.0441018 -0.154664 -0.918 255 210 0
-0.0424759 -0.154496 -0.917 255 223 0
-0.040898 -0.154496 -0.917 255 223 0
-0.0393202 -0.154496 -0.917 255 223 0
-0.0377012 -0.154327 -0.916 255 236 0
-0.036125 -0.154327 -0.916 255 236 0
-0.0346243 -0.154664 -0.918 255 210 0
-0.0330807 -0.154833 -0.919 255 197 0
-0.0314995 -0.154833 -0.919 255 197 0
-0.029853 -0.154496 -0.917 255 223 0
-0.0283369 -0.154833 -0.919 255 197 0
-0.0267695 -0.154914 -0.92 255 185 0
-0.0251874 -0.154914 -0.92 255 185 0
-0.023554 -0.154577 -0.918 255 210 0
-0.0219992 -0.154745 -0.919 255 197 0
-0.0204188 -0.154745 -0.919 255 197 0
-0.0188384 -0.154745 -0.919 255 197 0
-0.017258 -0.154745 -0.919 255 197 0
-0.0156947 -0.154914 -0.92 255 185 0
-0.0141279 -0.155082 -0.921 255 177 0
-0.0125304 -0.154914 -0.92 255 185 0
-0.0109602 -0.155082 -0.921 255 177 0
-0.00938654 -0.15525 -0.922 255 168 0
-0.00779252 -0.155082 -0.921 255 177 0
-0.00620868 -0.155082 -0.921 255 177 0
-0.00462484 -0.155082 -0.921 255 177 0
-0.0030443 -0.15525 -0.922 255 168 0
-0.00145874 -0.15525 -0.922 255 168 0
0.000126961 -0.155419 -0.923 255 160 0
0.00171053 -0.155082 -0.921 255 177 0
0.00328006 -0.154408 -0.917 255 223 0
0.00487291 -0.154914 -0.92 255 185 0
0.00649713 -0.155924 -0.926 255 131 0
0.00806336 -0.155419 -0.923 255 160 0
0.00968201 -0.155924 -0.926 255 131 0
0.0113232 -0.156597 -0.93 255 92 0
0.0129503 -0.156934 -0.932 255 76 0
0.0146311 -0.157776 -0.937 255 41 0
0.0162425 -0.157776 -0.937 255 41 0
0.0178919 -0.158113 -0.939 255 26 0
0.0195898 -0.158786 -0.943 255 0 0
0.021279 -0.159292 -0.946 241 0 0
0.02293 -0.15946 -0.947 236 0 0
0.0246104 -0.159797 -0.949 225 0 0
0.0262977 -0.160133 -0.951 214 0 0
0.0280078 -0.160561 -0.953 204 0 0
0.0298342 -0.161572 -0.959 188 0 0
0.0316485 -0.162414 -0.964 172 0 0
0.0329963 -0.160898 -0.955 199 0 0
0.0350748 -0.16292 -0.967 165 0 0
-0.136496 -0.155333 -0.907 157 255 96
-0.134992 -0.155409 -0.908 167 255 86
-0.13342 -0.155409 -0.908 167 255 86
-0.130542 -0.153869 -0.899 74 255 179
-0.127351 -0.151918 -0.888 0 234 255
-0.125674 -0.151747 -0.887 0 226 255
-0.1247 -0.152431 -0.891 6 255 247
-0.122053 -0.151062 -0.883 0 195 255
-0.120864 -0.151487 -0.886 0 217 255
-0.121083 -0.153709 -0.899 74 255 179
-0.119131 -0.153196 -0.896 51 255 202
-0.117713 -0.153367 -0.897 57 254 196
-0.11663 -0.153985 -0.901 91 255 162
-0.115201 -0.154156 -0.902 102 255 151
-0.113643 -0.154156 -0.902 102 255 151
-0.112084 -0.154156 -0.902 102 255 151
-0.110586 -0.15424 -0.903 114 255 139
-0.109027 -0.15424 -0.903 114 255 139
-0.107468 -0.15424 -0.903 114 255 139
-0.106026 -0.15441 -0.904 126 255 127
-0.104349 -0.15424 -0.903 114 255 139
-0.102847 -0.154326 -0.904 126 255 127
-0.101287 -0.154326 -0.904 126 255 127
-0.0996163 -0.154155 -0.903 114 255 139
-0.0983836 -0.154667 -0.906 147 255 106
-0.0970337 -0.155009 -0.908 167 255 86
-0.0952053 -0.154584 -0.906 147 255 106
-0.0933325 -0.154072 -0.903 114 255 139
-0.0918765 -0.154243 -0.904 126 255 127
-0.090417 -0.154414 -0.905 138 255 115
-0.0891505 -0.154926 -0.908 167 255 86
-0.0876463 -0.155035 -0.909 178 255 75
-0.0860789 -0.155035 -0.909 178 255 75
-0.0845116 -0.155035 -0.909 178 255 75
-0.0829443 -0.155035 -0.909 178 255 75
-0.0811979 -0.154694 -0.907 157 255 96
-0.0795462 -0.154524 -0.906 147 255 106
-0.0780301 -0.154615 -0.907 157 255 96
-0.0766356 -0.154956 -0.909 178 255 75
-0.0750691 -0.154956 -0.909 178 255 75
-0.0735834 -0.155126 -0.91 191 255 62
-0.071936 -0.154956 -0.909 178 255 75
-0.0704468 -0.155126 -0.91 191 255 62
-0.0686845 -0.154689 -0.908 167 255 86
-0.0668989 -0.154178 -0.905 138 255 115
-0.0654846 -0.154519 -0.907 157 255 96
-0.0640634 -0.15486 -0.909 178 255 75
-0.0627041 -0.155371 -0.912 217 255 36
-0.0612004 -0.155541 -0.913 230 255 23
-0.0595626 -0.155371 -0.912 217 255 36
-0.0579919 -0.155371 -0.912 217 255 36
-0.056394 -0.155296 -0.912 217 255 36
-0.0547639 -0.155126 -0.911 204 255 49
-0.0531956 -0.155126 -0.911 204 255 49
-0.0515707 -0.154955 -0.91 191 255 62
-0.0497294 -0.154104 -0.905 138 255 115
-0.0485973 -0.155466 -0.913 230 255 23
-0.0470255 -0.155466 -0.913 230 255 23
-0.045653 -0.156147 -0.917 255 223 0
-0.0439783 -0.155807 -0.915 255 250 0
-0.0424031 -0.155807 -0.915 255 250 0
-0.040898 -0.156074 -0.917 255 223 0
-0.0394059 -0.156415 -0.919 255 197 0
-0.0377423 -0.156074 -0.917 255 223 0
-0.036125 -0.155904 -0.916 255 236 0
-0.0345866 -0.156074 -0.917 255 223 0
-0.0330448 -0.156245 -0.918 255 210 0
-0.0314652 -0.156245 -0.918 255 210 0
-0.0298205 -0.155904 -0.916 255 236 0
-0.0282444 -0.155904 -0.916 255 236 0
-0.0267556 -0.156415 -0.919 255 197 0
-0.0252017 -0.156585 -0.92 255 185 0
-0.023593 -0.156415 -0.919 255 197 0
-0.0219877 -0.156245 -0.918 255 210 0
-0.0204081 -0.156245 -0.918 255 210 0
-0.0188081 -0.156074 -0.917 255 223 0
-0.0172302 -0.156074 -0.917 255 223 0
-0.0156865 -0.156415 -0.919 255 197 0
-0.0141279 -0.156666 -0.921 255 177 0
-0.012544 -0.156666 -0.921 255 177 0
-0.0109602 -0.156666 -0.921 255 177 0
-0.00937636 -0.156666 -0.921 255 177 0
-0.00779252 -0.156666 -0.921 255 177 0
-0.00620868 -0.156666 -0.921 255 177 0
-0.00462484 -0.156666 -0.921 255 177 0
-0.003041 -0.156666 -0.921 255 177 0
-0.00145557 -0.156496 -0.92 255 185 0
0.000127511 -0.157687 -0.927 255 121 0
0.00170681 -0.156326 -0.919 255 197 0
0.00330868 -0.157347 -0.925 255 141 0
0.00487821 -0.156666 -0.921 255 177 0
0.006441 -0.156156 -0.918 255 210 0
0.0080721 -0.157177 -0.924 255 150 0
0.00965064 -0.157007 -0.923 255 160 0
0.0113232 -0.158197 -0.93 255 92 0
0.0129642 -0.158708 -0.933 255 70 0
0.0146311 -0.159388 -0.937 255 41 0
0.0162863 -0.159819 -0.939 255 26 0
0.0179402 -0.160159 -0.941 255 11 0
0.0195801 -0.160329 -0.942 255 3 0
0.021291 -0.16101 -0.946 241 0 0
0.0229672 -0.161351 -0.948 231 0 0
0.0246763 -0.161861 -0.951 214 0 0
0.0263403 -0.162031 -0.952 209 0 0
0.0281841 -0.163223 -0.959 188 0 0
0.0298653 -0.163393 -0.96 185 0 0
0.0315828 -0.163733 -0.962 178 0 0
0.03348 -0.164925 -0.969 162 0 0
0.0356914 -0.167478 -0.984 145 0 0
-0.138979 -0.157942 -0.913 230 255 23
-0.135894 -0.156212 -0.903 114 255 139
-0.133735 -0.15552 -0.899 74 255 179
-0.132098 -0.155425 -0.899 74 255 179
-0.129816 -0.15456 -0.894 38 255 215
-0.127552 -0.153696 -0.889 0 243 255
-0.125022 -0.152486 -0.882 0 186 255
-0.12414 -0.153281 -0.887 0 226 255
-0.121638 -0.152072 -0.88 0 166 255
-0.120935 -0.153108 -0.886 0 217 255
-0.120211 -0.154145 -0.892 17 254 236
-0.118998 -0.154573 -0.895 44 255 209
-0.117582 -0.154746 -0.896 51 255 202
-0.116422 -0.155264 -0.899 74 255 179
-0.11474 -0.155091 -0.898 65 254 188
-0.113265 -0.155197 -0.899 74 255 179
-0.112084 -0.155715 -0.902 102 255 151
-0.110403 -0.155542 -0.901 91 255 162
-0.108726 -0.155369 -0.9 82 255 171
-0.10723 -0.155455 -0.901 91 255 162
-0.105674 -0.155455 -0.901 91 255 162
-0.103887 -0.155109 -0.899 74 255 179
-0.102448 -0.155282 -0.9 82 255 171
-0.100951 -0.155369 -0.901 91 255 162
-0.0993956 -0.155369 -0.901 91 255 162
-0.098275 -0.156059 -0.905 138 255 115
-0.0970337 -0.156576 -0.908 167 255 86
-0.0951512 -0.156059 -0.905 138 255 115
-0.0934358 -0.155803 -0.904 126 255 127
-0.0917748 -0.155631 -0.903 114 255 139
-0.0902172 -0.155631 -0.903 114 255 139
-0.088856 -0.155975 -0.905 138 255 115
-0.0875843 -0.156492 -0.908 167 255 86
-0.0858286 -0.156148 -0.906 147 255 106
-0.0842327 -0.156086 -0.906 147 255 106
-0.0826705 -0.156086 -0.906 147 255 106
-0.0810188 -0.155914 -0.905 138 255 115
-0.0794583 -0.155914 -0.905 138 255 115
-0.077984 -0.156086 -0.906 147 255 106
-0.0765061 -0.156259 -0.907 157 255 96
-0.0750691 -0.156523 -0.909 178 255 75
-0.0734216 -0.156351 -0.908 167 255 86
-0.071936 -0.156523 -0.909 178 255 75
-0.0701372 -0.156006 -0.906 147 255 106
-0.0683487 -0.15549 -0.903 114 255 139
-0.0667925 -0.15549 -0.903 114 255 139
-0.065453 -0.156006 -0.906 147 255 106
-0.0640634 -0.156426 -0.909 178 255 75
-0.0626353 -0.15677 -0.911 204 255 49
-0.0610663 -0.15677 -0.911 204 255 49
-0.0594973 -0.15677 -0.911 204 255 49
-0.0579919 -0.156942 -0.912 217 255 36
-0.0564211 -0.156942 -0.912 217 255 36
-0.0548504 -0.156942 -0.912 217 255 36
-0.0532796 -0.156942 -0.912 217 255 36
-0.0516273 -0.156695 -0.911 204 255 49
-0.0500041 -0.156523 -0.91 191 255 62
-0.0484908 -0.156695 -0.911 204 255 49
-0.0470255 -0.157039 -0.913 230 255 23
-0.045653 -0.157727 -0.917 255 223 0
-0.0438821 -0.157039 -0.913 230 255 23
-0.0424958 -0.157727 -0.917 255 223 0
-0.0408726 -0.157555 -0.916 255 236 0
-0.0393386 -0.157727 -0.917 255 223 0
-0.03776 -0.157727 -0.917 255 223 0
-0.0361814 -0.157727 -0.917 255 223 0
-0.0346243 -0.157825 -0.918 255 210 0
-0.0331167 -0.158168 -0.92 255 185 0
-0.0314652 -0.157825 -0.918 255 210 0
-0.0298205 -0.157481 -0.916 255 236 0
-0.0282135 -0.157309 -0.915 255 250 0
-0.0267264 -0.157825 -0.918 255 210 0
-0.0251743 -0.157997 -0.919 255 197 0
-0.023593 -0.157997 -0.919 255 197 0
-0.0220117 -0.157997 -0.919 255 197 0
-0.0204304 -0.157997 -0.919 255 197 0
-0.0188081 -0.157653 -0.917 255 223 0
-0.0172302 -0.157653 -0.917 255 223 0
-0.0157036 -0.158168 -0.92 255 185 0
-0.0141359 -0.15834 -0.921 255 177 0
-0.0125648 -0.158512 -0.922 255 168 0
-0.0109783 -0.158512 -0.922 255 168 0
-0.00939186 -0.158512 -0.922 255 168 0
-0.00781386 -0.158684 -0.923 255 160 0
-0.00621894 -0.158512 -0.922 255 168 0
-0.00462746 -0.15834 -0.921 255 177 0
-0.00303611 -0.157997 -0.919 255 197 0
-0.00145798 -0.15834 -0.921 255 177 0
0.000127033 -0.158684 -0.923 255 160 0
0.00170778 -0.157997 -0.919 255 197 0
0.00332487 -0.159716 -0.929 255 102 0
0.00490747 -0.1592 -0.926 255 131 0
0.00650783 -0.159372 -0.927 255 121 0
0.00805919 -0.158512 -0.922 255 168 0
0.00971888 -0.159716 -0.929 255 102 0
0.0113661 -0.160403 -0.933 255 70 0
0.0129993 -0.160747 -0.935 255 56 0
0.0146394 -0.161091 -0.937 255 41 0
0.016321 -0.161779 -0.941 255 11 0
0.0179592 -0.161951 -0.942 255 3 0
0.0196425 -0.162467 -0.945 246 0 0
0.0213135 -0.16281 -0.947 236 0 0
0.022943 -0.16281 -0.947 236 0 0
0.0246244 -0.163154 -0.949 225 0 0
0.0263403 -0.16367 -0.952 209 0 0
0.0282429 -0.165217 -0.961 181 0 0
0.0298964 -0.165217 -0.961 181 0 0
0.0315172 -0.165045 -0.96 185 0 0
0.03348 -0.166593 -0.969 162 0 0
-0.138435 -0.158898 -0.909 178 255 75
-0.135894 -0.157776 -0.903 114 255 139
-0.133735 -0.157077 -0.899 74 255 179
-0.131297 -0.156029 -0.893 28 255 225
-0.128364 -0.154362 -0.884 0 202 255
-0.126404 -0.153838 -0.881 0 176 255
-0.124738 -0.153663 -0.88 0 166 255
-0.123215 -0.153663 -0.88 0 166 255
-0.122467 -0.154641 -0.886 0 217 255
-0.122573 -0.156736 -0.898 65 254 188
-0.120616 -0.156212 -0.895 44 255 209
-0.119201 -0.156387 -0.896 51 255 202
-0.117844 -0.156644 -0.898 65 254 188
-0.116033 -0.156295 -0.896 51 255 202
-0.114612 -0.156469 -0.897 57 254 196
-0.113314 -0.156818 -0.899 74 255 179
-0.11196 -0.157099 -0.901 91 255 162
-0.110403 -0.157099 -0.901 91 255 162
-0.108605 -0.156751 -0.899 74 255 179
-0.107052 -0.156751 -0.899 74 255 179
-0.105439 -0.156662 -0.899 74 255 179
-0.103771 -0.156488 -0.898 65 254 188
-0.102334 -0.156662 -0.899 74 255 179
-0.100782 -0.156662 -0.899 74 255 179
-0.0993399 -0.156837 -0.9 82 255 171
-0.0978406 -0.156925 -0.901 91 255 162
-0.0964994 -0.157273 -0.903 114 255 139
-0.0947306 -0.156925 -0.901 91 255 162
-0.093279 -0.157099 -0.902 102 255 151
-0.091824 -0.157273 -0.903 114 255 139
-0.0901173 -0.157015 -0.902 102 255 151
-0.0887578 -0.157363 -0.904 126 255 127
-0.0873914 -0.157711 -0.906 147 255 106
-0.0858286 -0.157711 -0.906 147 255 106
-0.0840798 -0.157363 -0.904 126 255 127
-0.0825204 -0.157363 -0.904 126 255 127
-0.0809293 -0.157301 -0.904 126 255 127
-0.0793706 -0.157301 -0.904 126 255 127
-0.0777257 -0.157127 -0.903 114 255 139
-0.0761687 -0.157127 -0.903 114 255 139
-0.0748596 -0.157649 -0.906 147 255 106
-0.0733783 -0.157823 -0.907 157 255 96
-0.071936 -0.15809 -0.909 178 255 75
-0.0700597 -0.157394 -0.905 138 255 115
-0.0683487 -0.157047 -0.903 114 255 139
-0.0668665 -0.157221 -0.904 126 255 127
-0.0655253 -0.157742 -0.907 157 255 96
-0.0640327 -0.157916 -0.908 167 255 86
-0.0623991 -0.157742 -0.907 157 255 96
-0.0607982 -0.157644 -0.907 157 255 96
-0.0592361 -0.157644 -0.907 157 255 96
-0.0576739 -0.157644 -0.907 157 255 96
-0.0562355 -0.157992 -0.909 178 255 75
-0.0547301 -0.158166 -0.91 191 255 62
-0.0531628 -0.158166 -0.91 191 255 62
-0.0517089 -0.158513 -0.912 217 255 36
-0.0501931 -0.158687 -0.913 230 255 23
-0.0487804 -0.159209 -0.916 255 236 0
-0.0471801 -0.159132 -0.916 255 236 0
-0.0455534 -0.158958 -0.915 255 250 0
-0.0439783 -0.158958 -0.915 255 250 0
-0.0424031 -0.158958 -0.915 255 250 0
-0.0410064 -0.159653 -0.919 255 197 0
-0.0392957 -0.159132 -0.916 255 236 0
-0.0376776 -0.158958 -0.915 255 250 0
-0.036142 -0.159132 -0.916 255 236 0
-0.0346028 -0.159306 -0.917 255 223 0
-0.0330242 -0.159306 -0.917 255 223 0
-0.0314799 -0.159479 -0.918 255 210 0
-0.0298996 -0.159479 -0.918 255 210 0
-0.0283193 -0.159479 -0.918 255 210 0
-0.0267556 -0.159578 -0.919 255 197 0
-0.0252017 -0.159752 -0.92 255 185 0
-0.0236186 -0.159752 -0.92 255 185 0
-0.0220356 -0.159752 -0.92 255 185 0
-0.0204526 -0.159752 -0.92 255 185 0
-0.0188286 -0.159405 -0.918 255 210 0
-0.017249 -0.159405 -0.918 255 210 0
-0.0156694 -0.159405 -0.918 255 210 0
-0.0141205 -0.159752 -0.92 255 185 0
-0.0125511 -0.159926 -0.921 255 177 0
-0.0110021 -0.160447 -0.924 255 150 0
-0.00941223 -0.160447 -0.924 255 150 0
-0.00782233 -0.160447 -0.924 255 150 0
-0.00621894 -0.160099 -0.922 255 168 0
-0.00462746 -0.159926 -0.921 255 177 0
-0.00303941 -0.159752 -0.92 255 185 0
-0.00145798 -0.159926 -0.921 255 177 0
0.000126895 -0.160099 -0.922 255 168 0
0.00171335 -0.160099 -0.922 255 168 0
0.00327834 -0.159057 -0.916 255 236 0
0.00491277 -0.160968 -0.927 255 121 0
0.00647273 -0.160099 -0.922 255 168 0
0.00809415 -0.160794 -0.926 255 131 0
0.0097398 -0.161662 -0.931 255 83 0
0.0113417 -0.161662 -0.931 255 83 0
0.0130271 -0.162704 -0.937 255 41 0
0.0146706 -0.163051 -0.939 255 26 0
0.0163384 -0.163572 -0.942 255 3 0
0.0179974 -0.16392 -0.944 250 0 0
0.0196217 -0.16392 -0.944 250 0 0
0.021246 -0.16392 -0.944 250 0 0
0.0228703 -0.16392 -0.944 250 0 0
0.0245465 -0.164267 -0.946 241 0 0
0.0263403 -0.165309 -0.952 209 0 0
0.0281547 -0.166351 -0.958 191 0 0
0.0299416 -0.167123 -0.962 178 0 0
0.0318275 -0.168339 -0.969 162 0 0
0.0334957 -0.168339 -0.969 162 0 0
-0.137674 -0.159591 -0.904 126 255 127
-0.135957 -0.159414 -0.903 114 255 139
-0.132991 -0.157752 -0.894 38 255 215
-0.130708 -0.156869 -0.889 0 243 255
-0.127426 -0.154752 -0.877 0 139 255
-0.126548 -0.155539 -0.882 0 186 255
-0.125447 -0.156068 -0.885 0 210 255
-0.123075 -0.15501 -0.879 0 156 255
-0.122799 -0.156597 -0.888 0 234 255
-0.121481 -0.156879 -0.89 0 252 255
-0.120481 -0.157584 -0.894 38 255 215
-0.119068 -0.157761 -0.895 44 255 209
-0.117782 -0.158113 -0.897 57 254 196
-0.116033 -0.157844 -0.896 51 255 202
-0.114612 -0.15802 -0.897 57 254 196
-0.11344 -0.158549 -0.9 82 255 171
-0.111884 -0.158549 -0.9 82 255 171
-0.110281 -0.158481 -0.9 82 255 171
-0.108605 -0.158304 -0.899 74 255 179
-0.107052 -0.158304 -0.899 74 255 179
-0.105381 -0.158128 -0.898 65 254 188
-0.103598 -0.157776 -0.896 51 255 202
-0.102107 -0.157863 -0.897 57 254 196
-0.10067 -0.158039 -0.898 65 254 188
-0.0993399 -0.158391 -0.9 82 255 171
-0.0977857 -0.158391 -0.9 82 255 171
-0.0961247 -0.158215 -0.899 74 255 179
-0.0944152 -0.157953 -0.898 65 254 188
-0.0930722 -0.158304 -0.9 82 255 171
-0.0916206 -0.15848 -0.901 91 255 162
-0.0901656 -0.158656 -0.902 102 255 151
-0.0885106 -0.15848 -0.901 91 255 162
-0.087102 -0.158747 -0.903 114 255 139
-0.0856391 -0.158923 -0.904 126 255 127
-0.0838937 -0.158571 -0.902 102 255 151
-0.0823379 -0.158571 -0.902 102 255 151
-0.080782 -0.158571 -0.902 102 255 151
-0.0792261 -0.158571 -0.902 102 255 151
-0.0776397 -0.158509 -0.902 102 255 151
-0.076 -0.158333 -0.901 91 255 162
-0.0745291 -0.158509 -0.902 102 255 151
-0.0731356 -0.15886 -0.904 126 255 127
-0.0717353 -0.159212 -0.906 147 255 106
-0.0700182 -0.15886 -0.904 126 255 127
-0.0683487 -0.158603 -0.903 114 255 139
-0.0669404 -0.158955 -0.905 138 255 115
-0.0655975 -0.159482 -0.908 167 255 86
-0.0639622 -0.159306 -0.907 157 255 96
-0.0622615 -0.158955 -0.905 138 255 115
-0.0607689 -0.15913 -0.906 147 255 106
-0.0592729 -0.159306 -0.907 157 255 96
-0.0577734 -0.159482 -0.908 167 255 86
-0.0561737 -0.159383 -0.908 167 255 86
-0.05467 -0.159558 -0.909 178 255 75
-0.0531628 -0.159734 -0.91 191 255 62
-0.0516522 -0.159909 -0.911 204 255 49
-0.0501931 -0.16026 -0.913 230 255 23
-0.0486739 -0.160436 -0.914 245 255 8
-0.0472028 -0.160787 -0.916 255 236 0
-0.0457248 -0.161138 -0.918 255 210 0
-0.0440956 -0.160962 -0.917 255 223 0
-0.0424031 -0.160534 -0.915 255 250 0
-0.0410064 -0.161236 -0.919 255 197 0
-0.0392528 -0.160534 -0.915 255 250 0
-0.0377188 -0.160709 -0.916 255 236 0
-0.0361814 -0.160885 -0.917 255 223 0
-0.0346405 -0.16106 -0.918 255 210 0
-0.0330242 -0.160885 -0.917 255 223 0
-0.0314456 -0.160885 -0.917 255 223 0
-0.0298996 -0.16106 -0.918 255 210 0
-0.0283193 -0.16106 -0.918 255 210 0
-0.0267681 -0.161236 -0.919 255 197 0
-0.0252409 -0.161587 -0.921 255 177 0
-0.0236554 -0.161587 -0.921 255 177 0
-0.0220459 -0.161411 -0.92 255 185 0
-0.0204622 -0.161411 -0.92 255 185 0
-0.0188784 -0.161411 -0.92 255 185 0
-0.0172571 -0.16106 -0.918 255 210 0
-0.0156694 -0.160985 -0.918 255 210 0
-0.0141052 -0.16116 -0.919 255 197 0
-0.0125375 -0.161336 -0.92 255 185 0
-0.0109783 -0.161686 -0.922 255 168 0
-0.00940204 -0.161862 -0.923 255 160 0
-0.00781386 -0.161862 -0.923 255 160 0
-0.00622568 -0.161862 -0.923 255 160 0
-0.00462746 -0.161511 -0.921 255 177 0
-0.00304272 -0.161511 -0.921 255 177 0
-0.00145481 -0.16116 -0.919 255 197 0
0.000126758 -0.161511 -0.921 255 177 0
0.0017115 -0.161511 -0.921 255 177 0
0.00329623 -0.161511 -0.921 255 177 0
0.00485977 -0.16081 -0.917 255 223 0
0.00648677 -0.162037 -0.924 255 150 0
0.00812038 -0.162914 -0.929 255 102 0
0.00970842 -0.162739 -0.928 255 111 0
0.0113661 -0.163615 -0.933 255 70 0
0.013041 -0.164492 -0.938 255 33 0
0.0147019 -0.165018 -0.941 255 11 0
0.0163557 -0.165369 -0.943 255 0 0
0.0179867 -0.165447 -0.943 255 0 0
0.0196309 -0.165622 -0.944 250 0 0
0.0212785 -0.165797 -0.945 246 0 0
0.0229295 -0.165973 -0.946 241 0 0
0.0246619 -0.166675 -0.95 220 0 0
0.0265187 -0.168078 -0.958 191 0 0
0.0281679 -0.168078 -0.958 191 0 0
0.0299416 -0.16878 -0.962 178 0 0
0.0317947 -0.169833 -0.968 163 0 0
0.0337722 -0.171412 -0.977 153 0 0
0.0358533 -0.173342 -0.988 143 0 0
-0.138932 -0.160801 -0.902 102 255 151
-0.136151 -0.159375 -0.894 38 255 215
-0.134301 -0.159018 -0.892 17 254 236
-0.132458 -0.158661 -0.89 0 252 255
-0.13012 -0.157696 -0.885 0 210 255
-0.127716 -0.156627 -0.879 0 156 255
-0.126051 -0.156449 -0.878 0 148 255
-0.124814 -0.156805 -0.88 0 166 255
-0.123635 -0.157244 -0.883 0 195 255
-0.122799 -0.158134 -0.888 0 234 255
-0.121945 -0.159025 -0.893 28 255 225
-0.12102 -0.159843 -0.898 65 254 188
-0.118935 -0.159131 -0.894 38 255 215
-0.117257 -0.158953 -0.893 28 255 225
-0.116101 -0.159487 -0.896 51 255 202
-0.114679 -0.159665 -0.897 57 254 196
-0.113062 -0.159571 -0.897 57 254 196
-0.111511 -0.159571 -0.897 57 254 196
-0.110083 -0.159749 -0.898 65 254 188
-0.108289 -0.159394 -0.896 51 255 202
-0.106695 -0.159325 -0.896 51 255 202
-0.105029 -0.159147 -0.895 44 255 209
-0.103483 -0.159147 -0.895 44 255 209
-0.102392 -0.159858 -0.899 74 255 179
-0.100782 -0.159768 -0.899 74 255 179
-0.0992295 -0.159768 -0.899 74 255 179
-0.0977857 -0.159946 -0.9 82 255 171
-0.0961247 -0.159768 -0.899 74 255 179
-0.0943619 -0.159413 -0.897 57 254 196
-0.092762 -0.159325 -0.897 57 254 196
-0.0912139 -0.159325 -0.897 57 254 196
-0.0898657 -0.159681 -0.899 74 255 179
-0.0883142 -0.159681 -0.899 74 255 179
-0.0868591 -0.159858 -0.9 82 255 171
-0.0854954 -0.160213 -0.902 102 255 151
-0.0839868 -0.160305 -0.903 114 255 139
-0.0823379 -0.160128 -0.902 102 255 151
-0.0806924 -0.15995 -0.901 91 255 162
-0.0791382 -0.15995 -0.901 91 255 162
-0.0775841 -0.15995 -0.901 91 255 162
-0.0759455 -0.159773 -0.9 82 255 171
-0.0744465 -0.159887 -0.901 91 255 162
-0.0731356 -0.16042 -0.904 126 255 127
-0.0714977 -0.160242 -0.903 114 255 139
-0.0698633 -0.160065 -0.902 102 255 151
-0.068308 -0.160065 -0.902 102 255 151
-0.0669747 -0.160597 -0.905 138 255 115
-0.0654865 -0.160775 -0.906 147 255 106
-0.0638916 -0.160692 -0.906 147 255 106
-0.0622615 -0.160515 -0.905 138 255 115
-0.0607018 -0.160515 -0.905 138 255 115
-0.0592729 -0.16087 -0.907 157 255 96
-0.057837 -0.161224 -0.909 178 255 75
-0.0562705 -0.161224 -0.909 178 255 75
-0.0547039 -0.161224 -0.909 178 255 75
-0.0531958 -0.161402 -0.91 191 255 62
-0.0516522 -0.161479 -0.911 204 255 49
-0.0500832 -0.161479 -0.911 204 255 49
-0.0485674 -0.161656 -0.912 217 255 36
-0.0472028 -0.162365 -0.916 255 236 0
-0.045675 -0.162542 -0.917 255 223 0
-0.0439994 -0.162188 -0.915 255 250 0
-0.0424235 -0.162188 -0.915 255 250 0
-0.0408923 -0.162365 -0.916 255 236 0
-0.0391429 -0.161656 -0.912 217 255 36
-0.0376958 -0.162188 -0.915 255 250 0
-0.0361594 -0.162365 -0.916 255 236 0
-0.0346028 -0.162464 -0.917 255 223 0
-0.0330242 -0.162464 -0.917 255 223 0
-0.0314456 -0.162464 -0.917 255 223 0
-0.0298996 -0.162641 -0.918 255 210 0
-0.0283501 -0.162818 -0.919 255 197 0
-0.0267972 -0.162996 -0.92 255 185 0
-0.0252135 -0.162996 -0.92 255 185 0
-0.0236554 -0.163173 -0.921 255 177 0
-0.022022 -0.162818 -0.919 255 197 0
-0.0204622 -0.162996 -0.92 255 185 0
-0.0188579 -0.162818 -0.919 255 197 0
-0.0172759 -0.162818 -0.919 255 197 0
-0.0156938 -0.162818 -0.919 255 197 0
-0.0141272 -0.162996 -0.92 255 185 0
-0.0125434 -0.162996 -0.92 255 185 0
-0.0109715 -0.163173 -0.921 255 177 0
-0.00939626 -0.16335 -0.922 255 168 0
-0.00782599 -0.163704 -0.924 255 150 0
-0.00623535 -0.163704 -0.924 255 150 0
-0.00463465 -0.16335 -0.922 255 168 0
-0.00304084 -0.162996 -0.92 255 185 0
-0.00145708 -0.162996 -0.92 255 185 0
0.000126955 -0.16335 -0.922 255 168 0
0.0017123 -0.163173 -0.921 255 177 0
0.00330852 -0.163704 -0.924 255 150 0
0.00492037 -0.164413 -0.928 255 111 0
0.00653195 -0.164767 -0.93 255 92 0
0.00814167 -0.164944 -0.931 255 83 0
0.00971297 -0.164413 -0.928 255 111 0
0.0113592 -0.165122 -0.932 255 76 0
0.0130332 -0.166007 -0.937 255 41 0
0.0147557 -0.167248 -0.944 250 0 0
0.0163807 -0.167248 -0.944 250 0 0
0.0179867 -0.16707 -0.943 255 0 0
0.0196309 -0.167248 -0.944 250 0 0
0.0212785 -0.167425 -0.945 246 0 0
0.022978 -0.167956 -0.948 231 0 0
0.0247138 -0.168665 -0.952 209 0 0
0.026491 -0.169551 -0.957 194 0 0
0.0281679 -0.169728 -0.958 191 0 0
0.0301283 -0.1715 -0.968 163 0 0
0.0317947 -0.1715 -0.968 163 0 0
0.0338068 -0.173271 -0.978 152 0 0
-0.136224 -0.159199 -0.884 0 202 255
-0.135758 -0.16046 -0.891 6 255 247
-0.133398 -0.159484 -0.886 0 217 255
-0.130523 -0.157864 -0.877 0 139 255
-0.129446 -0.158404 -0.88 0 166 255
-0.127716 -0.15815 -0.879 0 156 255
-0.124902 -0.15653 -0.87 0 89 254
-0.124105 -0.15743 -0.875 0 122 254
-0.12301 -0.15797 -0.878 0 148 255
-0.122384 -0.159132 -0.885 0 210 255
-0.120853 -0.159132 -0.885 0 210 255
-0.120535 -0.16075 -0.894 38 255 215
-0.118722 -0.160391 -0.892 17 254 236
-0.117126 -0.160319 -0.892 17 254 236
-0.115972 -0.160858 -0.895 44 255 209
-0.114552 -0.161037 -0.896 51 255 202
-0.113002 -0.161037 -0.896 51 255 202
-0.111263 -0.160763 -0.895 44 255 209
-0.109593 -0.160584 -0.894 38 255 215
-0.108048 -0.160584 -0.894 38 255 215
-0.106383 -0.160404 -0.893 28 255 225
-0.104677 -0.160155 -0.892 17 254 236
-0.103367 -0.160514 -0.894 38 255 215
-0.102278 -0.161233 -0.898 65 254 188
-0.100727 -0.161233 -0.898 65 254 188
-0.0990645 -0.161053 -0.897 57 254 196
-0.0974598 -0.160962 -0.897 57 254 196
-0.0959108 -0.160962 -0.897 57 254 196
-0.0943619 -0.160962 -0.897 57 254 196
-0.0927095 -0.160783 -0.896 51 255 202
-0.0910605 -0.160603 -0.895 44 255 209
-0.0895658 -0.160695 -0.896 51 255 202
-0.0883142 -0.161233 -0.899 74 255 179
-0.0866661 -0.161053 -0.898 65 254 188
-0.0853058 -0.161412 -0.9 82 255 171
-0.0838456 -0.161591 -0.901 91 255 162
-0.0821993 -0.161412 -0.9 82 255 171
-0.0803342 -0.160788 -0.897 57 254 196
-0.0791382 -0.161505 -0.901 91 255 162
-0.0775841 -0.161505 -0.901 91 255 162
-0.0759455 -0.161326 -0.9 82 255 171
-0.0742278 -0.160967 -0.898 65 254 188
-0.0728406 -0.161326 -0.9 82 255 171
-0.0713394 -0.161441 -0.901 91 255 162
-0.0698633 -0.161621 -0.902 102 255 151
-0.068308 -0.161621 -0.902 102 255 151
-0.0668267 -0.1618 -0.903 114 255 139
-0.065342 -0.161979 -0.904 126 255 127
-0.0638538 -0.162158 -0.905 138 255 115
-0.0622933 -0.162158 -0.905 138 255 115
-0.0607018 -0.162075 -0.905 138 255 115
-0.0592075 -0.162254 -0.906 147 255 106
-0.0577734 -0.162612 -0.908 167 255 86
-0.0562705 -0.162791 -0.909 178 255 75
-0.0546437 -0.162612 -0.908 167 255 86
-0.0531958 -0.162971 -0.91 191 255 62
-0.0516276 -0.162971 -0.91 191 255 62
-0.0501143 -0.16315 -0.911 204 255 49
-0.0485976 -0.163329 -0.912 217 255 36
-0.0469967 -0.163227 -0.912 217 255 36
-0.0455754 -0.163764 -0.915 255 250 0
-0.0439994 -0.163764 -0.915 255 250 0
-0.0424235 -0.163764 -0.915 255 250 0
-0.0408923 -0.163943 -0.916 255 236 0
-0.0393146 -0.163943 -0.916 255 236 0
-0.0375722 -0.163227 -0.912 217 255 36
-0.0360409 -0.163406 -0.913 230 255 23
-0.0345817 -0.163943 -0.916 255 236 0
-0.0330041 -0.163943 -0.916 255 236 0
-0.0314608 -0.164122 -0.917 255 223 0
-0.029914 -0.164301 -0.918 255 210 0
-0.0283329 -0.164301 -0.918 255 210 0
-0.0267681 -0.164401 -0.919 255 197 0
-0.0251861 -0.164401 -0.919 255 197 0
-0.023604 -0.164401 -0.919 255 197 0
-0.0220459 -0.16458 -0.92 255 185 0
-0.0204622 -0.16458 -0.92 255 185 0
-0.0188579 -0.164401 -0.919 255 197 0
-0.0172759 -0.164401 -0.919 255 197 0
-0.0156938 -0.164401 -0.919 255 197 0
-0.0141118 -0.164401 -0.919 255 197 0
-0.0125298 -0.164401 -0.919 255 197 0
-0.0109596 -0.16458 -0.92 255 185 0
-0.00939626 -0.164938 -0.922 255 168 0
-0.00781752 -0.165117 -0.923 255 160 0
-0.0062286 -0.165117 -0.923 255 160 0
-0.00463968 -0.165117 -0.923 255 160 0
-0.00304084 -0.16458 -0.92 255 185 0
-0.00145708 -0.16458 -0.92 255 185 0
0.000127093 -0.165117 -0.923 255 160 0
0.00172159 -0.165653 -0.926 255 131 0
0.00331926 -0.165832 -0.927 255 121 0
0.00492568 -0.16619 -0.929 255 102 0
0.006546 -0.166727 -0.932 255 76 0
0.00813293 -0.166369 -0.93 255 92 0
0.00974437 -0.166548 -0.931 255 83 0
0.0113592 -0.166727 -0.932 255 76 0
0.0129915 -0.167084 -0.934 255 63 0
0.01474 -0.168694 -0.943 255 0 0
0.0163981 -0.169052 -0.945 246 0 0
0.0180058 -0.168873 -0.944 250 0 0
0.0196309 -0.168873 -0.944 250 0 0
0.021301 -0.169231 -0.946 241 0 0
0.0230265 -0.169947 -0.95 220 0 0
0.0247138 -0.170304 -0.952 209 0 0
0.026491 -0.171199 -0.957 194 0 0
0.0281679 -0.171378 -0.958 191 0 0
0.030174 -0.173429 -0.969 162 0 0
0.03181 -0.17325 -0.968 163 0 0
0.0341689 -0.17683 -0.988 143 0 0
0.0375406 -0.185063 -1.034 127 0 0
0.0401581 -0.189 -1.056 127 0 0
0.0427321 -0.192401 -1.075 127 0 0
-0.138691 -0.161823 -0.89 0 252 255
-0.137611 -0.162368 -0.893 28 255 225
-0.134539 -0.16055 -0.883 0 195 255
-0.13316 -0.160732 -0.884 0 202 255
-0.130672 -0.159565 -0.878 0 148 255
-0.128857 -0.159202 -0.876 0 130 255
-0.125305 -0.156657 -0.862 0 50 255
-0.126338 -0.159854 -0.88 0 166 255
-0.124672 -0.159672 -0.879 0 156 255
-0.123571 -0.160217 -0.882 0 186 255
-0.122597 -0.160944 -0.886 0 217 255
-0.121126 -0.161027 -0.887 0 226 255
-0.119321 -0.160664 -0.885 0 210 255
-0.118855 -0.162116 -0.893 28 255 225
-0.11731 -0.162116 -0.893 28 255 225
-0.115583 -0.161862 -0.892 17 254 236
-0.113785 -0.161499 -0.89 0 252 255
-0.112497 -0.161862 -0.892 17 254 236
-0.111079 -0.162043 -0.893 28 255 225
-0.109348 -0.161767 -0.892 17 254 236
-0.107806 -0.161767 -0.892 17 254 236
-0.106145 -0.161585 -0.891 6 255 247
-0.104605 -0.161585 -0.891 6 255 247
-0.10318 -0.161767 -0.892 17 254 236
-0.101822 -0.16206 -0.894 38 255 215
-0.100278 -0.16206 -0.894 38 255 215
-0.0988436 -0.162241 -0.895 44 255 209
-0.0972973 -0.162241 -0.895 44 255 209
-0.0958579 -0.162422 -0.896 51 255 202
-0.0943619 -0.162512 -0.897 57 254 196
-0.0927095 -0.162331 -0.896 51 255 202
-0.0909588 -0.161968 -0.894 38 255 215
-0.089615 -0.162331 -0.896 51 255 202
-0.0881661 -0.162512 -0.897 57 254 196
-0.0863766 -0.16206 -0.895 44 255 209
-0.0849267 -0.162242 -0.896 51 255 202
-0.0835665 -0.162604 -0.898 65 254 188
-0.0819253 -0.162423 -0.897 57 254 196
