ply
format ascii 1.0
element vertex 1294
property float32 x
property float32 y
property float32 z
property uchar diffuse_red
property uchar diffuse_green
property uchar diffuse_blue
end_header
0.0817001 0.0580475 -0.866 0 66 254
0.0831834 0.0580475 -0.866 0 66 254
0.0845689 0.0579804 -0.865 0 58 255
0.08615 0.0580475 -0.866 0 66 254
0.0878768 0.0582087 -0.868 0 81 254
0.0894671 0.0582758 -0.869 0 87 255
0.0909563 0.0582758 -0.869 0 87 255
0.0924454 0.0582758 -0.869 0 87 255
0.0940426 0.0583429 -0.87 0 94 254
0.0955892 0.0583769 -0.87 0 94 254
0.0973041 0.0585111 -0.872 0 107 255
0.0990258 0.0586453 -0.874 0 122 255
0.100754 0.0587795 -0.876 0 138 255
0.102256 0.0587795 -0.876 0 138 255
0.103923 0.0588725 -0.877 0 145 254
0.105187 0.0587383 -0.875 0 130 254
0.106932 0.0588725 -0.877 0 145 254
0.108189 0.0587383 -0.875 0 130 254
0.110503 0.059174 -0.881 0 171 255
0.111761 0.0590397 -0.879 0 160 255
0.112496 0.0586367 -0.873 0 115 255
0.115431 0.0593755 -0.884 0 186 255
0.113299 0.0575228 -0.856 0 0 245
0.116646 0.0584636 -0.87 0 94 254
0.117054 0.057926 -0.862 0 33 254
0.118672 0.0579932 -0.863 0 42 254
0.121329 0.0585605 -0.871 0 100 255
0.123812 0.0590312 -0.878 0 153 255
-0.155475 0.0645 -0.983 242 0 0
-0.153384 0.0643324 -0.981 247 0 0
-0.150769 0.0639389 -0.975 255 9 0
-0.148787 0.0638077 -0.973 255 17 0
-0.146445 0.0635176 -0.969 255 35 0
-0.144779 0.0635176 -0.969 255 35 0
-0.142818 0.0633865 -0.967 255 46 0
-0.140864 0.0632554 -0.965 255 58 0
-0.138987 0.0631565 -0.964 255 66 0
-0.136619 0.0628289 -0.959 255 111 0
-0.13483 0.0627634 -0.958 255 120 0
-0.132561 0.0624696 -0.954 255 150 0
-0.130511 0.0622732 -0.951 255 176 0
-0.129691 0.0626661 -0.957 255 130 0
-0.12778 0.0625351 -0.955 255 143 0
-0.126211 0.0625701 -0.956 255 137 0
-0.12431 0.0624392 -0.954 255 150 0
-0.122415 0.0623083 -0.952 255 167 0
-0.121035 0.0624392 -0.954 255 150 0
-0.118706 0.0620774 -0.949 255 195 0
-0.116954 0.062012 -0.948 255 203 0
-0.114112 0.0613578 -0.938 239 255 14
-0.109864 0.0599187 -0.916 96 255 157
-0.106756 0.0590684 -0.903 28 255 225
-0.104112 0.0584539 -0.894 0 233 254
-0.102006 0.0581269 -0.889 0 210 255
-0.100595 0.0581923 -0.89 0 216 255
-0.0988459 0.0580615 -0.888 0 205 254
-0.0964999 0.0575703 -0.881 0 171 255
-0.0948823 0.0575049 -0.88 0 165 254
-0.093056 0.0573089 -0.877 0 145 254
-0.09124 0.0571129 -0.874 0 122 255
-0.0897423 0.0571129 -0.874 0 122 255
-0.0876987 0.0567596 -0.869 0 87 255
-0.0860119 0.0566289 -0.867 0 73 254
-0.0848194 0.0568249 -0.87 0 94 254
-0.0833292 0.0568249 -0.87 0 94 254
-0.0814628 0.0565636 -0.866 0 66 254
-0.0797948 0.056433 -0.864 0 51 255
-0.0780939 0.0562737 -0.862 0 33 254
-0.0763516 0.0560779 -0.859 0 10 255
-0.0747067 0.0559473 -0.857 0 0 253
-0.0734105 0.0560779 -0.859 0 10 255
-0.0720236 0.0561432 -0.86 0 17 254
-0.0705514 0.0561432 -0.86 0 17 254
-0.0690468 0.0561169 -0.86 0 17 254
-0.0673395 0.0559212 -0.857 0 0 253
-0.0657961 0.0558559 -0.856 0 0 245
-0.0643314 0.0558559 -0.856 0 0 245
-0.0627198 0.0557254 -0.854 0 0 225
-0.0614019 0.0558559 -0.856 0 0 245
-0.0598672 0.0557907 -0.855 0 0 235
-0.0583724 0.0557604 -0.855 0 0 235
-0.0568436 0.0556952 -0.854 0 0 225
-0.0553183 0.0556299 -0.853 0 0 215
-0.0537963 0.0555647 -0.852 0 0 209
-0.0523392 0.0555647 -0.852 0 0 209
-0.0508224 0.0554995 -0.851 0 0 202
-0.049309 0.0554343 -0.85 0 0 196
-0.047799 0.0553691 -0.849 0 0 190
-0.0462924 0.0553038 -0.848 0 0 185
-0.0448736 0.0553427 -0.849 0 0 190
-0.0434224 0.0553427 -0.849 0 0 190
-0.0418722 0.0552123 -0.847 0 0 181
-0.0404243 0.0552123 -0.847 0 0 181
-0.0389305 0.0551471 -0.846 0 0 177
-0.0374843 0.0551471 -0.846 0 0 177
-0.0360808 0.0552123 -0.847 0 0 181
-0.034592 0.0551471 -0.846 0 0 177
-0.0331458 0.0551471 -0.846 0 0 177
-0.0316997 0.0551471 -0.846 0 0 177
-0.0302178 0.0550819 -0.845 0 0 172
-0.0286899 0.0549222 -0.843 0 0 164
-0.027185 0.0547919 -0.841 0 0 155
-0.0257482 0.0547919 -0.841 0 0 155
-0.0243402 0.0548571 -0.842 0 0 159
-0.0229017 0.0548571 -0.842 0 0 159
-0.0214377 0.0547919 -0.841 0 0 155
-0.0200008 0.0547919 -0.841 0 0 155
-0.0185419 0.0547268 -0.84 0 0 151
-0.0171068 0.0547268 -0.84 0 0 151
-0.0156716 0.0547268 -0.84 0 0 151
-0.0142196 0.0546616 -0.839 0 0 146
-0.0127709 0.0545965 -0.838 0 0 142
-0.0113257 0.0545313 -0.837 0 0 140
-0.00990748 0.0545965 -0.838 0 0 142
-0.00848588 0.0546616 -0.839 0 0 146
-0.00706086 0.0547268 -0.84 0 0 151
-0.00563913 0.0548571 -0.842 0 0 159
-0.00421555 0.0550525 -0.845 0 0 172
-0.00277515 0.0551177 -0.846 0 0 177
-0.00132977 0.0551177 -0.846 0 0 177
0.000115611 0.0551177 -0.846 0 0 177
0.00156468 0.055248 -0.848 0 0 185
0.00302414 0.0554435 -0.851 0 0 202
0.00447807 0.0554435 -0.851 0 0 202
0.00592502 0.0553783 -0.85 0 0 196
0.00737724 0.0553783 -0.85 0 0 196
0.00883984 0.0554435 -0.851 0 0 202
0.0102938 0.0554435 -0.851 0 0 202
0.0117753 0.0555737 -0.853 0 0 215
0.0133102 0.0558995 -0.858 0 4 255
0.0147761 0.0558995 -0.858 0 4 255
0.016223 0.0558344 -0.857 0 0 253
0.0176872 0.0558344 -0.857 0 0 253
0.0191737 0.0558995 -0.858 0 4 255
0.0206396 0.0558995 -0.858 0 4 255
0.0221055 0.0558995 -0.858 0 4 255
0.0235714 0.0558995 -0.858 0 4 255
0.0250956 0.0560298 -0.86 0 17 254
0.0265649 0.0560298 -0.86 0 17 254
0.0280342 0.0560298 -0.86 0 17 254
0.0295536 0.0561249 -0.861 0 25 254
0.0310254 0.0561249 -0.861 0 25 254
0.0324972 0.0561249 -0.861 0 25 254
0.033969 0.0561249 -0.861 0 25 254
0.0354408 0.0561249 -0.861 0 25 254
0.0369554 0.0561901 -0.862 0 33 254
0.038429 0.0561901 -0.862 0 33 254
0.0398562 0.0561249 -0.861 0 25 254
0.04128 0.0560597 -0.86 0 17 254
0.0427003 0.0559945 -0.859 0 10 255
0.0441687 0.0559945 -0.859 0 10 255
0.0456371 0.0559945 -0.859 0 10 255
0.0471828 0.0560865 -0.86 0 17 254
0.0485404 0.055956 -0.858 0 4 255
0.0500078 0.055956 -0.858 0 4 255
0.0514752 0.055956 -0.858 0 4 255
0.0529425 0.055956 -0.858 0 4 255
0.0543465 0.0558908 -0.857 0 0 253
0.0558121 0.0558908 -0.857 0 0 253
0.0572778 0.0558908 -0.857 0 0 253
0.0587434 0.0558908 -0.857 0 0 253
0.0601012 0.0557907 -0.855 0 0 235
0.0617083 0.0559212 -0.857 0 0 253
0.0632484 0.0559864 -0.858 0 4 255
0.0647166 0.0559864 -0.858 0 4 255
0.0662619 0.0560517 -0.859 0 10 255
0.0677318 0.0560517 -0.859 0 10 255
0.0692016 0.0560517 -0.859 0 10 255
0.0707046 0.0560779 -0.859 0 10 255
0.0721751 0.0560779 -0.859 0 10 255
0.0738172 0.0562085 -0.861 0 25 254
0.0754661 0.056339 -0.863 0 42 254
0.0770326 0.0564043 -0.864 0 51 255
0.0785117 0.0564043 -0.864 0 51 255
0.0801242 0.0564983 -0.865 0 58 255
0.0816057 0.0564983 -0.865 0 58 255
0.0830873 0.0564983 -0.865 0 58 255
0.0845689 0.0564983 -0.865 0 58 255
0.0862495 0.0566289 -0.867 0 73 254
0.087978 0.0567861 -0.869 0 87 255
0.0895701 0.0568515 -0.87 0 94 254
0.0910609 0.0568515 -0.87 0 94 254
0.0924454 0.0567861 -0.869 0 87 255
0.0940426 0.0568515 -0.87 0 94 254
0.0956991 0.05695 -0.871 0 100 255
0.0975273 0.0571462 -0.874 0 122 255
0.0990258 0.0571462 -0.874 0 122 255
0.100754 0.0572769 -0.876 0 138 255
0.102256 0.0572769 -0.876 0 138 255
0.103804 0.0573022 -0.876 0 138 255
0.105547 0.057433 -0.878 0 153 255
0.106566 0.0571714 -0.874 0 122 255
0.10893 0.0576293 -0.881 0 171 255
0.109876 0.0573341 -0.876 0 138 255
0.110871 0.0570723 -0.872 0 107 255
0.113785 0.0577923 -0.883 0 181 255
0.114909 0.0575959 -0.88 0 165 254
0.116155 0.057465 -0.878 0 153 255
0.116512 0.0569037 -0.869 0 87 255
0.118548 0.0571656 -0.873 0 115 255
0.118809 0.0565763 -0.864 0 51 255
0.121608 0.0571946 -0.873 0 115 255
0.124094 0.0576532 -0.88 0 165 254
-0.158707 0.0641135 -1.004 193 0 0
-0.154322 0.0630279 -0.987 230 0 0
-0.150769 0.0622616 -0.975 255 9 0
-0.148787 0.0621339 -0.973 255 17 0
-0.146747 0.061979 -0.971 255 26 0
-0.144779 0.0618514 -0.969 255 35 0
-0.142818 0.0617237 -0.967 255 46 0
-0.140935 0.0616273 -0.966 255 52 0
-0.139131 0.0615635 -0.965 255 58 0
-0.136476 0.0611169 -0.958 255 120 0
-0.13469 0.0610531 -0.957 255 130 0
-0.132839 0.0609584 -0.956 255 137 0
-0.130374 0.0605758 -0.95 255 186 0
-0.130504 0.0614047 -0.963 255 74 0
-0.127513 0.0607671 -0.953 255 157 0
-0.125815 0.0607375 -0.953 255 157 0
-0.124179 0.0607375 -0.953 255 157 0
-0.122158 0.0605463 -0.95 255 186 0
-0.120908 0.0607375 -0.953 255 157 0
-0.118831 0.0605126 -0.95 255 186 0
-0.116584 0.0601941 -0.945 255 224 0
-0.114233 0.0598119 -0.939 246 255 7
-0.109984 0.0584106 -0.917 104 255 149
-0.106827 0.0575571 -0.904 34 255 219
-0.104112 0.0569204 -0.894 0 233 254
-0.102006 0.0566021 -0.889 0 210 255
-0.100142 0.0564111 -0.886 0 194 255
-0.098178 0.0561564 -0.882 0 176 255
-0.0964999 0.05606 -0.881 0 171 255
-0.0947745 0.0559328 -0.879 0 160 255
-0.093056 0.0558055 -0.877 0 145 254
-0.0913444 0.0556782 -0.875 0 130 254
-0.0897423 0.0556146 -0.874 0 122 255
-0.0876987 0.0552706 -0.869 0 87 255
-0.0857143 0.0549526 -0.864 0 51 255
-0.0845269 0.0551434 -0.867 0 73 254
-0.0833292 0.0553342 -0.87 0 94 254
-0.0814628 0.0550798 -0.866 0 66 254
-0.0795696 0.0547975 -0.862 0 33 254
-0.0779127 0.0546704 -0.86 0 17 254
-0.0761738 0.0544797 -0.857 0 0 253
-0.074881 0.0546068 -0.859 0 10 255
-0.0735814 0.054734 -0.861 0 25 254
-0.0719399 0.0546068 -0.859 0 10 255
-0.0705184 0.0546448 -0.86 0 17 254
-0.0690468 0.0546448 -0.86 0 17 254
-0.0673395 0.0544542 -0.857 0 0 253
-0.0657961 0.0543906 -0.856 0 0 245
-0.0642563 0.0543271 -0.855 0 0 235
-0.0627932 0.0543271 -0.855 0 0 235
-0.0612585 0.0542636 -0.854 0 0 225
-0.0597647 0.0542341 -0.854 0 0 225
-0.0583042 0.0542341 -0.854 0 0 225
-0.0567771 0.0541706 -0.853 0 0 215
-0.0552534 0.0541071 -0.852 0 0 209
-0.0537963 0.0541071 -0.852 0 0 209
-0.0523392 0.0541071 -0.852 0 0 209
-0.0507627 0.0539801 -0.85 0 0 196
-0.049309 0.0539801 -0.85 0 0 196
-0.0477762 0.0538909 -0.849 0 0 190
-0.0462704 0.0538274 -0.848 0 0 185
-0.0448736 0.0538909 -0.849 0 0 190
-0.0434224 0.0538909 -0.849 0 0 190
-0.0419216 0.0538274 -0.848 0 0 185
-0.0404243 0.0537639 -0.847 0 0 181
-0.0389305 0.0537004 -0.846 0 0 177
-0.0374843 0.0537004 -0.846 0 0 177
-0.0360808 0.0537639 -0.847 0 0 181
-0.0345511 0.053637 -0.845 0 0 172
-0.0331067 0.053637 -0.845 0 0 172
-0.0316622 0.053637 -0.845 0 0 172
-0.0301659 0.0535449 -0.844 0 0 168
-0.028724 0.0535449 -0.844 0 0 168
-0.0272497 0.0534815 -0.843 0 0 164
-0.0257482 0.0533546 -0.841 0 0 155
-0.0243113 0.0533546 -0.841 0 0 155
-0.0228745 0.0533546 -0.841 0 0 155
-0.0214377 0.0533546 -0.841 0 0 155
-0.0200008 0.0533546 -0.841 0 0 155
-0.018564 0.0533546 -0.841 0 0 155
-0.0171068 0.0532911 -0.84 0 0 151
-0.0156716 0.0532911 -0.84 0 0 151
-0.0142196 0.0532277 -0.839 0 0 146
-0.0127861 0.0532277 -0.839 0 0 146
-0.0113527 0.0532277 -0.839 0 0 146
-0.00990748 0.0531643 -0.838 0 0 142
-0.00849599 0.0532911 -0.84 0 0 151
-0.00707767 0.053418 -0.842 0 0 159
-0.00565252 0.0535449 -0.844 0 0 168
-0.00421056 0.0535449 -0.844 0 0 168
-0.00277515 0.0536718 -0.846 0 0 177
-0.00133134 0.0537352 -0.847 0 0 181
0.000115748 0.0537352 -0.847 0 0 181
0.00156468 0.0537987 -0.848 0 0 185
0.00302059 0.0539256 -0.85 0 0 196
0.00447807 0.053989 -0.851 0 0 202
0.00593199 0.053989 -0.851 0 0 202
0.00738591 0.053989 -0.851 0 0 202
0.00885023 0.0540524 -0.852 0 0 209
0.0102938 0.053989 -0.851 0 0 202
0.0117615 0.0540524 -0.852 0 0 209
0.0133102 0.0544331 -0.858 0 4 255
0.0147761 0.0544331 -0.858 0 4 255
0.016242 0.0544331 -0.858 0 4 255
0.0177079 0.0544331 -0.858 0 4 255
0.0191737 0.0544331 -0.858 0 4 255
0.0206637 0.0544965 -0.859 0 10 255
0.0221313 0.0544965 -0.859 0 10 255
0.0236263 0.05456 -0.86 0 17 254
0.0250665 0.0544965 -0.859 0 10 255
0.0265649 0.05456 -0.86 0 17 254
0.0280342 0.05456 -0.86 0 17 254
0.0295721 0.0546869 -0.862 0 33 254
0.0310088 0.0546234 -0.861 0 25 254
0.0325349 0.0547161 -0.862 0 33 254
0.033969 0.0546526 -0.861 0 25 254
0.0354408 0.0546526 -0.861 0 25 254
0.0369983 0.0547795 -0.863 0 42 254
0.038429 0.0547161 -0.862 0 33 254
0.0398099 0.0545891 -0.86 0 17 254
0.04128 0.0545891 -0.86 0 17 254
0.04275 0.0545891 -0.86 0 17 254
0.0441687 0.0545256 -0.859 0 10 255
0.0456371 0.0545256 -0.859 0 10 255
0.0471055 0.0545256 -0.859 0 10 255
0.048597 0.0545516 -0.859 0 10 255
0.0500078 0.0544881 -0.858 0 4 255
0.0514752 0.0544881 -0.858 0 4 255
0.0528808 0.0544246 -0.857 0 0 253
0.0543465 0.0544246 -0.857 0 0 253
0.0558121 0.0544246 -0.857 0 0 253
0.057211 0.0543611 -0.856 0 0 245
0.058812 0.0544881 -0.858 0 4 255
0.0602794 0.0544881 -0.858 0 4 255
0.0617083 0.0544542 -0.857 0 0 253
0.0633221 0.0545813 -0.859 0 10 255
0.064792 0.0545813 -0.859 0 10 255
0.0662619 0.0545813 -0.859 0 10 255
0.0677318 0.0545813 -0.859 0 10 255
0.0692822 0.0546448 -0.86 0 17 254
0.0706715 0.0545813 -0.859 0 10 255
0.0721751 0.0546068 -0.859 0 10 255
0.0737314 0.0546704 -0.86 0 17 254
0.0753786 0.0547975 -0.862 0 33 254
0.0770326 0.0549247 -0.864 0 51 255
0.0784209 0.0548611 -0.863 0 42 254
0.0799909 0.0549247 -0.864 0 51 255
0.0815114 0.0549526 -0.864 0 51 255
0.0830873 0.0550162 -0.865 0 58 255
0.0846667 0.0550798 -0.866 0 66 254
0.0862495 0.0551434 -0.867 0 73 254
0.088038 0.0553342 -0.87 0 94 254
0.089673 0.0554237 -0.871 0 100 255
0.0911656 0.0554237 -0.871 0 100 255
0.0926582 0.0554237 -0.871 0 100 255
0.0941507 0.0554237 -0.871 0 100 255
0.0958629 0.055551 -0.873 0 115 255
0.0975273 0.055647 -0.874 0 122 255
0.0992524 0.0557744 -0.876 0 138 255
0.100524 0.055647 -0.874 0 122 255
0.10249 0.0559017 -0.878 0 153 255
0.103758 0.0557744 -0.876 0 138 255
0.105908 0.0561175 -0.881 0 171 255
0.107663 0.0562449 -0.883 0 181 255
0.110414 0.0568819 -0.893 0 229 255
0.111445 0.0566271 -0.889 0 210 255
0.113668 0.0569773 -0.894 0 233 254
0.114687 0.0567223 -0.89 0 216 255
0.11739 0.0572959 -0.899 2 255 251
0.117081 0.0564037 -0.885 0 190 255
0.118121 0.0561761 -0.881 0 171 255
0.118819 0.0557935 -0.875 0 130 254
0.120872 0.0560486 -0.879 0 160 255
0.121546 0.055666 -0.873 0 115 255
0.123812 0.0560132 -0.878 0 153 255
-0.159181 0.0625727 -1.007 187 0 0
-0.154479 0.0613921 -0.988 228 0 0
-0.151388 0.0608328 -0.979 251 0 0
-0.149333 0.060682 -0.977 255 2 0
-0.147049 0.0604335 -0.973 255 17 0
-0.144779 0.0601851 -0.969 255 35 0
-0.143113 0.0601851 -0.969 255 35 0
-0.141081 0.0600292 -0.967 255 46 0
-0.13942 0.0600292 -0.967 255 46 0
-0.136619 0.0595325 -0.959 255 111 0
-0.134762 0.0594403 -0.958 255 120 0
-0.133395 0.0595644 -0.96 255 101 0
-0.130511 0.059006 -0.951 255 176 0
-0.129149 0.0591301 -0.953 255 157 0
-0.127585 0.0591633 -0.954 255 150 0
-0.125947 0.0591633 -0.954 255 150 0
-0.124049 0.0590393 -0.952 255 167 0
-0.122287 0.0589772 -0.951 255 176 0
-0.120968 0.0591304 -0.954 255 150 0
-0.118706 0.0588204 -0.949 255 195 0
-0.116461 0.0585105 -0.944 255 231 0
-0.11399 0.0580767 -0.937 231 255 22
-0.110104 0.056899 -0.918 111 255 142
-0.106945 0.0560685 -0.905 40 255 213
-0.104229 0.055449 -0.895 0 237 255
-0.102121 0.0551392 -0.89 0 216 255
-0.100029 0.0548294 -0.885 0 190 255
-0.0981208 0.0546117 -0.882 0 176 255
-0.0962808 0.054426 -0.879 0 160 255
-0.0947745 0.054426 -0.879 0 160 255
-0.0931621 0.0543641 -0.878 0 153 255
-0.0915532 0.0543021 -0.877 0 145 254
-0.0899056 0.0542149 -0.876 0 138 255
-0.0881024 0.0540292 -0.873 0 115 255
-0.0860119 0.0536578 -0.867 0 73 254
-0.0842344 0.0534722 -0.864 0 51 255
-0.0828503 0.0535341 -0.865 0 58 255
-0.0811806 0.0534103 -0.863 0 42 254
-0.0795696 0.0533213 -0.862 0 33 254
-0.0778221 0.0531357 -0.859 0 10 255
-0.0761738 0.053012 -0.857 0 0 253
-0.0749682 0.0531976 -0.86 0 17 254
-0.0734959 0.0531976 -0.86 0 17 254
-0.0719062 0.0531109 -0.859 0 10 255
-0.0704364 0.0531109 -0.859 0 10 255
-0.0690468 0.0531727 -0.86 0 17 254
-0.067418 0.053049 -0.858 0 4 255
-0.0657961 0.0529254 -0.856 0 0 245
-0.0644066 0.0529872 -0.857 0 0 253
-0.0628667 0.0529254 -0.856 0 0 245
-0.0612969 0.0528348 -0.855 0 0 235
-0.0598347 0.0528348 -0.855 0 0 235
-0.0583042 0.0527731 -0.854 0 0 225
-0.0567771 0.0527113 -0.853 0 0 215
-0.0552534 0.0526495 -0.852 0 0 209
-0.0537963 0.0526495 -0.852 0 0 209
-0.0523392 0.0526495 -0.852 0 0 209
-0.0508224 0.0525877 -0.851 0 0 202
-0.0492275 0.0524391 -0.849 0 0 190
-0.0477762 0.0524391 -0.849 0 0 190
-0.0462704 0.0523773 -0.848 0 0 185
-0.0448208 0.0523773 -0.848 0 0 185
-0.0433712 0.0523773 -0.848 0 0 185
-0.0418722 0.0523155 -0.847 0 0 181
-0.0404243 0.0523155 -0.847 0 0 181
-0.0389765 0.0523155 -0.847 0 0 181
-0.0374843 0.0522538 -0.846 0 0 177
-0.0360382 0.0522538 -0.846 0 0 177
-0.034592 0.0522538 -0.846 0 0 177
-0.033089 0.0521642 -0.845 0 0 172
-0.0316079 0.0521024 -0.844 0 0 168
-0.0301659 0.0521024 -0.844 0 0 168
-0.0286899 0.0520407 -0.843 0 0 164
-0.0272173 0.051979 -0.842 0 0 159
-0.0257482 0.0519172 -0.841 0 0 155
-0.0243113 0.0519172 -0.841 0 0 155
-0.0228745 0.0519172 -0.841 0 0 155
-0.0214377 0.0519172 -0.841 0 0 155
-0.0200008 0.0519172 -0.841 0 0 155
-0.018564 0.0519172 -0.841 0 0 155
-0.0171068 0.0518555 -0.84 0 0 151
-0.0156716 0.0518555 -0.84 0 0 151
-0.0142365 0.0518555 -0.84 0 0 151
-0.0127861 0.0517938 -0.839 0 0 146
-0.0113663 0.0518555 -0.84 0 0 151
-0.00993112 0.0518555 -0.84 0 0 151
-0.00850611 0.0519172 -0.841 0 0 155
-0.00709448 0.0521024 -0.844 0 0 168
-0.00565922 0.0521642 -0.845 0 0 172
-0.00422053 0.0522259 -0.846 0 0 177
-0.00277843 0.0522876 -0.847 0 0 181
-0.00133134 0.0522876 -0.847 0 0 181
0.000115884 0.0523494 -0.848 0 0 185
0.00156468 0.0523494 -0.848 0 0 185
0.00301348 0.0523494 -0.848 0 0 185
0.00448333 0.0525963 -0.852 0 0 209
0.00594593 0.052658 -0.853 0 0 215
0.00739459 0.0525963 -0.852 0 0 209
0.008871 0.0527198 -0.854 0 0 225
0.010318 0.052658 -0.853 0 0 215
0.0117753 0.052658 -0.853 0 0 215
0.0132947 0.052905 -0.857 0 0 253
0.0147933 0.0530284 -0.859 0 10 255
0.0162609 0.0530284 -0.859 0 10 255
0.0177285 0.0530284 -0.859 0 10 255
0.0191737 0.0529667 -0.858 0 4 255
0.0206396 0.0529667 -0.858 0 4 255
0.022157 0.0530902 -0.86 0 17 254
0.0236263 0.0530902 -0.86 0 17 254
0.0250665 0.0530284 -0.859 0 10 255
0.026534 0.0530284 -0.859 0 10 255
0.0280668 0.0531519 -0.861 0 25 254
0.0295721 0.0532136 -0.862 0 33 254
0.0310449 0.0532136 -0.862 0 33 254
0.0325176 0.0532136 -0.862 0 33 254
0.0340297 0.0532754 -0.863 0 42 254
0.0356054 0.0534273 -0.865 0 58 255
0.0369983 0.0533038 -0.863 0 42 254
0.038429 0.053242 -0.862 0 33 254
0.0398099 0.0531185 -0.86 0 17 254
0.041376 0.053242 -0.862 0 33 254
0.0428495 0.053242 -0.862 0 33 254
0.0442201 0.0531185 -0.86 0 17 254
0.0456902 0.0531185 -0.86 0 17 254
0.0471603 0.0531185 -0.86 0 17 254
0.0485738 0.0530567 -0.859 0 10 255
0.0500422 0.0530567 -0.859 0 10 255
0.0515352 0.053082 -0.859 0 10 255
0.0529425 0.0530202 -0.858 0 4 255
0.0543465 0.0529584 -0.857 0 0 253
0.0558121 0.0529584 -0.857 0 0 253
0.057211 0.0528966 -0.856 0 0 245
0.0587434 0.0529584 -0.857 0 0 253
0.0602091 0.0529584 -0.857 0 0 253
0.0617467 0.0530202 -0.858 0 4 255
0.0632484 0.053049 -0.858 0 4 255
0.064792 0.0531109 -0.859 0 10 255
0.0662619 0.0531109 -0.859 0 10 255
0.0677318 0.0531109 -0.859 0 10 255
0.0692016 0.0531109 -0.859 0 10 255
0.0706715 0.0531109 -0.859 0 10 255
0.0721751 0.0531357 -0.859 0 10 255
0.0738172 0.0532594 -0.861 0 25 254
0.0752912 0.0532594 -0.861 0 25 254
0.0769435 0.0533832 -0.863 0 42 254
0.0785117 0.053445 -0.864 0 51 255
0.0799909 0.053445 -0.864 0 51 255
0.0815114 0.0534722 -0.864 0 51 255
0.0830873 0.0535341 -0.865 0 58 255
0.0847644 0.0536578 -0.867 0 73 254
0.0864484 0.0537816 -0.869 0 87 255
0.088038 0.0538435 -0.87 0 94 254
0.0895282 0.0538435 -0.87 0 94 254
0.0911656 0.0539306 -0.871 0 100 255
0.0927645 0.0539925 -0.872 0 107 255
0.0942588 0.0539925 -0.872 0 107 255
0.0956433 0.0539306 -0.871 0 100 255
0.0974704 0.0541164 -0.874 0 122 255
0.0992524 0.0542718 -0.876 0 138 255
0.100869 0.0543338 -0.877 0 145 254
0.10284 0.0545816 -0.881 0 171 255
0.104824 0.0548294 -0.885 0 190 255
0.107351 0.0553495 -0.893 0 229 255
0.10876 0.0552875 -0.892 0 224 255
0.110661 0.0554734 -0.895 0 237 255
0.112447 0.0555974 -0.897 0 246 255
0.114304 0.0557524 -0.899 2 255 251
0.115203 0.0554423 -0.894 0 233 254
0.116215 0.0551943 -0.89 0 216 255
0.118933 0.0557524 -0.899 2 255 251
0.119404 0.0552563 -0.891 0 220 255
0.119906 0.0547868 -0.883 0 181 255
0.120459 0.0543525 -0.876 0 138 255
0.12085 0.0538561 -0.868 0 81 254
0.123953 0.0545663 -0.879 0 160 255
-0.159655 0.0610216 -1.01 181 0 0
-0.15526 0.0599945 -0.993 217 0 0
-0.152006 0.0593903 -0.983 242 0 0
-0.14918 0.0589416 -0.976 255 5 0
-0.147351 0.0588812 -0.975 255 9 0
-0.145227 0.0587 -0.972 255 22 0
-0.143333 0.0586087 -0.971 255 26 0
-0.141373 0.0584879 -0.969 255 35 0
-0.13942 0.0583672 -0.967 255 46 0
-0.137474 0.0582465 -0.965 255 58 0
-0.135184 0.0579756 -0.961 255 92 0
-0.133534 0.0579756 -0.961 255 92 0
-0.131197 0.057674 -0.956 255 137 0
-0.128878 0.0573723 -0.951 255 176 0
-0.127317 0.0574047 -0.952 255 167 0
-0.126079 0.0575856 -0.955 255 143 0
-0.12431 0.0575253 -0.954 255 150 0
-0.122544 0.057465 -0.953 255 157 0
-0.121094 0.0575536 -0.955 255 143 0
-0.118956 0.0573125 -0.951 255 176 0
-0.116338 0.0568304 -0.943 255 237 0
-0.11472 0.0568304 -0.943 255 237 0
-0.111254 0.0559017 -0.928 170 255 83
-0.107181 0.0546367 -0.907 47 255 206
-0.104112 0.0538536 -0.894 0 233 254
-0.102006 0.0535524 -0.889 0 210 255
-0.100142 0.0533717 -0.886 0 194 255
-0.098232 0.05316 -0.883 0 181 255
-0.0963903 0.0529794 -0.88 0 165 254
-0.0947745 0.0529192 -0.879 0 160 255
-0.0931621 0.052859 -0.878 0 153 255
-0.0915532 0.0527987 -0.877 0 145 254
-0.0900082 0.0527741 -0.877 0 145 254
-0.0881024 0.0525334 -0.873 0 115 255
-0.0862103 0.0522927 -0.869 0 87 255
-0.0843319 0.052052 -0.865 0 58 255
-0.0826587 0.0519316 -0.863 0 42 254
-0.0809513 0.0517849 -0.861 0 25 254
-0.0795696 0.0518451 -0.862 0 33 254
-0.0780033 0.0517849 -0.861 0 25 254
-0.0764405 0.0517248 -0.86 0 17 254
-0.0750554 0.0517849 -0.861 0 25 254
-0.0735814 0.0517849 -0.861 0 25 254
-0.07199 0.0517006 -0.86 0 17 254
-0.0704364 0.0516405 -0.859 0 10 255
-0.0690468 0.0517006 -0.86 0 17 254
-0.0673395 0.0515202 -0.857 0 0 253
-0.065873 0.0515202 -0.857 0 0 253
-0.0643314 0.0514601 -0.856 0 0 245
-0.0628325 0.0514322 -0.856 0 0 245
-0.0613686 0.0514322 -0.856 0 0 245
-0.0598347 0.0513721 -0.855 0 0 235
-0.0583042 0.051312 -0.854 0 0 225
-0.0568436 0.051312 -0.854 0 0 225
-0.0552534 0.0511918 -0.852 0 0 209
-0.0537963 0.0511918 -0.852 0 0 209
-0.0522163 0.0510717 -0.85 0 0 196
-0.0506788 0.0509873 -0.849 0 0 190
-0.0492275 0.0509873 -0.849 0 0 190
-0.0478325 0.0510473 -0.85 0 0 196
-0.0463249 0.0509873 -0.849 0 0 190
-0.0448208 0.0509272 -0.848 0 0 185
-0.0433201 0.0508672 -0.847 0 0 181
-0.0418722 0.0508672 -0.847 0 0 181
-0.0404243 0.0508672 -0.847 0 0 181
-0.0390225 0.0509272 -0.848 0 0 185
-0.0375286 0.0508672 -0.847 0 0 181
-0.0360382 0.0508071 -0.846 0 0 177
-0.0345735 0.05078 -0.846 0 0 177
-0.033089 0.05072 -0.845 0 0 172
-0.0316079 0.0506599 -0.844 0 0 168
-0.0301659 0.0506599 -0.844 0 0 168
-0.0286899 0.0505999 -0.843 0 0 164
-0.027185 0.0504799 -0.841 0 0 155
-0.0257482 0.0504799 -0.841 0 0 155
-0.0243113 0.0504799 -0.841 0 0 155
-0.0228745 0.0504799 -0.841 0 0 155
-0.0214377 0.0504799 -0.841 0 0 155
-0.0200008 0.0504799 -0.841 0 0 155
-0.018564 0.0504799 -0.841 0 0 155
-0.0171068 0.0504199 -0.84 0 0 151
-0.015653 0.0503598 -0.839 0 0 146
-0.0142196 0.0503598 -0.839 0 0 146
-0.0128014 0.0504199 -0.84 0 0 151
-0.0113798 0.0504799 -0.841 0 0 155
-0.00993112 0.0504199 -0.84 0 0 151
-0.00851622 0.0505399 -0.842 0 0 159
-0.0071113 0.05078 -0.846 0 0 177
-0.00567931 0.0509 -0.848 0 0 185
-0.00424548 0.0510801 -0.851 0 0 202
-0.00278499 0.0509601 -0.849 0 0 190
-0.00133449 0.0509601 -0.849 0 0 190
0.000115966 0.0509359 -0.849 0 0 190
0.00156653 0.0509601 -0.849 0 0 190
0.00301703 0.0509601 -0.849 0 0 190
0.00448859 0.0512002 -0.853 0 0 215
0.00594593 0.0512002 -0.853 0 0 215
0.00739459 0.0511401 -0.852 0 0 209
0.00886061 0.0512002 -0.853 0 0 215
0.010318 0.0512002 -0.853 0 0 215
0.0117891 0.0512602 -0.854 0 0 225
0.0132947 0.0514403 -0.857 0 0 253
0.0147933 0.0515603 -0.859 0 10 255
0.0162798 0.0516203 -0.86 0 17 254
0.0177285 0.0515603 -0.859 0 10 255
0.0191961 0.0515603 -0.859 0 10 255
0.0206877 0.0516203 -0.86 0 17 254
0.0221828 0.0516803 -0.861 0 25 254
0.0236813 0.0517404 -0.862 0 33 254
0.0251248 0.0516803 -0.861 0 25 254
0.0266267 0.0517404 -0.862 0 33 254
0.028132 0.0518004 -0.863 0 42 254
0.0295721 0.0517404 -0.862 0 33 254
0.0310449 0.0517404 -0.862 0 33 254
0.032593 0.0518604 -0.864 0 51 255
0.0341086 0.0519204 -0.865 0 58 255
0.0355042 0.0518004 -0.863 0 42 254
0.0369983 0.051828 -0.863 0 42 254
0.038429 0.051768 -0.862 0 33 254
0.0399025 0.051768 -0.862 0 33 254
0.041376 0.051768 -0.862 0 33 254
0.0428495 0.051768 -0.862 0 33 254
0.0442201 0.0516479 -0.86 0 17 254
0.0456902 0.0516479 -0.86 0 17 254
0.0471055 0.0515878 -0.859 0 10 255
0.0486304 0.0516479 -0.86 0 17 254
0.0501587 0.0517079 -0.861 0 25 254
0.0515705 0.0516479 -0.86 0 17 254
0.0529425 0.0515523 -0.858 0 4 255
0.0544099 0.0515523 -0.858 0 4 255
0.0558773 0.0515523 -0.858 0 4 255
0.0572778 0.0514923 -0.857 0 0 253
0.0587434 0.0514923 -0.857 0 0 253
0.0602091 0.0514923 -0.857 0 0 253
0.0618187 0.0516124 -0.859 0 10 255
0.0631747 0.0515202 -0.857 0 0 253
0.064792 0.0516405 -0.859 0 10 255
0.0662619 0.0516405 -0.859 0 10 255
0.0677318 0.0516405 -0.859 0 10 255
0.0692016 0.0516405 -0.859 0 10 255
0.0707538 0.0517006 -0.86 0 17 254
0.0721414 0.0516405 -0.859 0 10 255
0.0736457 0.0516646 -0.859 0 10 255
0.0751163 0.0516646 -0.859 0 10 255
0.0768543 0.0518451 -0.862 0 33 254
0.0785117 0.0519654 -0.864 0 51 255
0.0799909 0.0519654 -0.864 0 51 255
0.08147 0.0519654 -0.864 0 51 255
0.0830873 0.052052 -0.865 0 58 255
0.0845689 0.052052 -0.865 0 58 255
0.0862495 0.0521723 -0.867 0 73 254
0.0881392 0.052413 -0.871 0 100 255
0.0896311 0.052413 -0.871 0 100 255
0.0912703 0.0524977 -0.872 0 107 255
0.0926582 0.0524375 -0.871 0 100 255
0.0942588 0.0524977 -0.872 0 107 255
0.0958629 0.0525579 -0.873 0 115 255
0.0976934 0.0527385 -0.876 0 138 255
0.0997056 0.0530103 -0.88 0 165 254
0.10156 0.053191 -0.883 0 181 255
0.104474 0.0539138 -0.895 0 237 255
0.105772 0.0537934 -0.893 0 229 255
0.107543 0.0539138 -0.895 0 237 255
0.109126 0.0539376 -0.895 0 237 255
0.110785 0.0539979 -0.896 0 242 255
0.112447 0.0540582 -0.897 0 246 255
0.113986 0.0540582 -0.897 0 246 255
0.115589 0.0540883 -0.897 0 246 255
0.116998 0.054028 -0.896 0 242 255
0.118271 0.0539074 -0.894 0 233 254
0.120074 0.054028 -0.896 0 242 255
0.120856 0.0536923 -0.89 0 216 255
0.121147 0.0531494 -0.881 0 171 255
0.121963 0.0528477 -0.876 0 138 255
0.123609 0.052908 -0.877 0 145 254
-0.159655 0.0592841 -1.01 181 0 0
-0.155104 0.0582275 -0.992 219 0 0
-0.15194 0.057674 -0.983 242 0 0
-0.149486 0.0573806 -0.978 255 0 0
-0.147503 0.0572633 -0.976 255 5 0
-0.145526 0.057146 -0.974 255 13 0
-0.143333 0.0569399 -0.971 255 26 0
-0.141227 0.0567639 -0.968 255 39 0
-0.139276 0.0566466 -0.966 255 52 0
-0.137616 0.0566466 -0.966 255 52 0
-0.135325 0.0563835 -0.962 255 83 0
-0.133117 0.056149 -0.958 255 120 0
-0.131609 0.0562076 -0.959 255 111 0
-0.129628 0.0560631 -0.957 255 130 0
-0.127718 0.0559459 -0.955 255 143 0
-0.125947 0.0558874 -0.954 255 150 0
-0.12457 0.0560045 -0.956 255 137 0
-0.122861 0.0559733 -0.956 255 137 0
-0.121221 0.0559733 -0.956 255 137 0
-0.118831 0.055622 -0.95 255 186 0
-0.116831 0.0554464 -0.947 255 210 0
-0.115207 0.0554464 -0.947 255 210 0
-0.111734 0.0545441 -0.932 196 255 57
-0.1073 0.0531395 -0.908 50 255 203
-0.104345 0.0524372 -0.896 0 242 255
-0.102235 0.0521446 -0.891 0 220 255
-0.100197 0.0518803 -0.887 0 199 255
-0.0983433 0.0517048 -0.884 0 186 255
-0.0962808 0.0514123 -0.879 0 160 255
-0.0946667 0.0513539 -0.878 0 153 255
-0.0931621 0.0513539 -0.878 0 153 255
-0.0916147 0.0513298 -0.878 0 153 255
-0.0899056 0.0512129 -0.876 0 138 255
-0.0881024 0.0510375 -0.873 0 115 255
-0.0866071 0.0510375 -0.873 0 115 255
-0.0850144 0.0509791 -0.872 0 107 255
-0.0826167 0.0504273 -0.863 0 42 254
-0.0809513 0.0503104 -0.861 0 25 254
-0.0794773 0.0503104 -0.861 0 25 254
-0.0779127 0.050252 -0.86 0 17 254
-0.0764405 0.050252 -0.86 0 17 254
-0.0750554 0.0503104 -0.861 0 25 254
-0.0734615 0.0502285 -0.86 0 17 254
-0.07199 0.0502285 -0.86 0 17 254
-0.0704364 0.0501701 -0.859 0 10 255
-0.0690468 0.0502285 -0.86 0 17 254
-0.0674966 0.0501701 -0.859 0 10 255
-0.065873 0.0500533 -0.857 0 0 253
-0.0643314 0.0499948 -0.856 0 0 245
-0.0628325 0.0499677 -0.856 0 0 245
-0.0613686 0.0499677 -0.856 0 0 245
-0.0598347 0.0499093 -0.855 0 0 235
-0.0583042 0.049851 -0.854 0 0 225
-0.0567105 0.0497342 -0.852 0 0 209
-0.0552534 0.0497342 -0.852 0 0 209
-0.0537332 0.0496758 -0.851 0 0 202
-0.0522528 0.0496522 -0.851 0 0 202
-0.0507385 0.0495938 -0.85 0 0 196
-0.0492855 0.0495938 -0.85 0 0 196
-0.0478325 0.0495938 -0.85 0 0 196
-0.0463249 0.0495355 -0.849 0 0 190
-0.0448208 0.0494771 -0.848 0 0 185
-0.0433712 0.0494771 -0.848 0 0 185
-0.0419216 0.0494771 -0.848 0 0 185
-0.0404721 0.0494771 -0.848 0 0 185
-0.0389765 0.0494188 -0.847 0 0 181
-0.0374643 0.0493341 -0.846 0 0 177
-0.0360189 0.0493341 -0.846 0 0 177
-0.0345327 0.0492758 -0.845 0 0 172
-0.033089 0.0492758 -0.845 0 0 172
-0.0316453 0.0492758 -0.845 0 0 172
-0.0301659 0.0492175 -0.844 0 0 168
-0.0286559 0.0491008 -0.842 0 0 159
-0.027185 0.0490425 -0.841 0 0 155
-0.0257482 0.0490425 -0.841 0 0 155
-0.0243113 0.0490425 -0.841 0 0 155
-0.0228745 0.0490425 -0.841 0 0 155
-0.0214377 0.0490425 -0.841 0 0 155
-0.019977 0.0489842 -0.84 0 0 151
-0.018564 0.0490425 -0.841 0 0 155
-0.0171068 0.0489842 -0.84 0 0 151
-0.0156903 0.0490425 -0.841 0 0 155
-0.0142535 0.0490425 -0.841 0 0 155
-0.0128166 0.0490425 -0.841 0 0 155
-0.0113744 0.0490192 -0.841 0 0 155
-0.00995004 0.0490775 -0.842 0 0 159
-0.0085324 0.0491941 -0.844 0 0 168
-0.00710792 0.0493107 -0.846 0 0 177
-0.00568331 0.0494855 -0.849 0 0 190
-0.00423848 0.0495438 -0.85 0 0 196
-0.00278695 0.0495438 -0.85 0 0 196
-0.00133542 0.0495438 -0.85 0 0 196
0.000116103 0.0495438 -0.85 0 0 196
0.00156763 0.0495438 -0.85 0 0 196
0.00302271 0.0496021 -0.851 0 0 202
0.00449698 0.0498353 -0.855 0 0 235
0.00595008 0.049777 -0.854 0 0 225
0.00739108 0.0496604 -0.852 0 0 209
0.00885641 0.0497187 -0.853 0 0 215
0.0103131 0.0497187 -0.853 0 0 215
0.0118249 0.0499518 -0.857 0 0 253
0.0133257 0.0500922 -0.859 0 10 255
0.0147933 0.0500922 -0.859 0 10 255
0.0162798 0.0501505 -0.86 0 17 254
0.0177698 0.0502088 -0.861 0 25 254
0.0192855 0.0503254 -0.863 0 42 254
0.0207599 0.0503254 -0.863 0 42 254
0.0222343 0.0503254 -0.863 0 42 254
0.0237087 0.0503254 -0.863 0 42 254
0.0251832 0.0503254 -0.863 0 42 254
0.0266576 0.0503254 -0.863 0 42 254
0.028132 0.0503254 -0.863 0 42 254
0.0295721 0.0502671 -0.862 0 33 254
0.0311169 0.0503838 -0.864 0 51 255
0.0326307 0.0504421 -0.865 0 58 255
0.0340692 0.0503838 -0.864 0 51 255
0.0355042 0.0503254 -0.863 0 42 254
0.0369357 0.0502671 -0.862 0 33 254
0.0384085 0.0502671 -0.862 0 33 254
0.0399487 0.0503523 -0.863 0 42 254
0.041424 0.0503523 -0.863 0 42 254
0.0428992 0.0503523 -0.863 0 42 254
0.0443744 0.0503523 -0.863 0 42 254
0.0457433 0.0502356 -0.861 0 25 254
0.0471603 0.0501773 -0.86 0 17 254
0.0486304 0.0501773 -0.86 0 17 254
0.050217 0.050294 -0.862 0 33 254
0.0515705 0.0501773 -0.86 0 17 254
0.052979 0.0501189 -0.859 0 10 255
0.0544099 0.0500845 -0.858 0 4 255
0.0558773 0.0500845 -0.858 0 4 255
0.0573446 0.0500845 -0.858 0 4 255
0.0587434 0.0500261 -0.857 0 0 253
0.0602091 0.0500261 -0.857 0 0 253
0.0616028 0.0499677 -0.856 0 0 245
0.0631404 0.0500261 -0.857 0 0 253
0.0647166 0.0501117 -0.858 0 4 255
0.0661847 0.0501117 -0.858 0 4 255
0.0676529 0.0501117 -0.858 0 4 255
0.0692016 0.0501701 -0.859 0 10 255
0.0706715 0.0501701 -0.859 0 10 255
0.0721414 0.0501701 -0.859 0 10 255
0.0736113 0.0501701 -0.859 0 10 255
0.0752912 0.0503104 -0.861 0 25 254
0.0770326 0.0504857 -0.864 0 51 255
0.0785117 0.0504857 -0.864 0 51 255
0.0799909 0.0504857 -0.864 0 51 255
0.0815643 0.0505441 -0.865 0 58 255
0.0829491 0.0504857 -0.864 0 51 255
0.0843734 0.0504529 -0.863 0 42 254
0.0860505 0.0505698 -0.865 0 58 255
0.0881392 0.0509206 -0.871 0 100 255
0.0896311 0.0509206 -0.871 0 100 255
0.0912276 0.0509791 -0.872 0 107 255
0.0928709 0.0510614 -0.873 0 115 255
0.0946912 0.0512369 -0.876 0 138 255
0.0963021 0.0512954 -0.877 0 145 254
0.0983626 0.0515878 -0.882 0 176 255
0.10078 0.0520557 -0.89 0 216 255
0.102595 0.0522031 -0.892 0 224 255
0.104241 0.0522617 -0.893 0 229 255
0.106009 0.0523787 -0.895 0 237 255
0.108024 0.0526128 -0.899 2 255 251
0.109492 0.0525775 -0.898 0 251 255
0.111403 0.0527531 -0.901 15 255 238
0.112949 0.0527531 -0.901 15 255 238
0.114367 0.0526946 -0.9 8 255 245
0.116233 0.0528411 -0.902 21 255 232
0.117651 0.0527825 -0.901 15 255 238
0.11933 0.0528411 -0.902 21 255 232
0.120878 0.0528411 -0.902 21 255 232
0.121128 0.0522807 -0.892 0 224 255
0.122934 0.0523979 -0.894 0 233 254
0.123495 0.0519877 -0.887 0 199 255
0.12234 0.0508741 -0.868 0 81 254
-0.158865 0.0572617 -1.005 191 0 0
-0.154791 0.056407 -0.99 223 0 0
-0.152404 0.0561545 -0.986 233 0 0
-0.149639 0.0557559 -0.979 251 0 0
-0.147805 0.0556989 -0.978 255 0 0
-0.145377 0.0554141 -0.973 255 17 0
-0.143038 0.0551572 -0.969 255 35 0
-0.141227 0.0551003 -0.968 255 39 0
-0.13942 0.0550434 -0.967 255 46 0
-0.137689 0.0550154 -0.967 255 46 0
-0.135747 0.0549016 -0.965 255 58 0
-0.133395 0.0546172 -0.96 255 101 0
-0.131609 0.0545603 -0.959 255 111 0
-0.129899 0.0545337 -0.959 255 111 0
-0.127986 0.05442 -0.957 255 130 0
-0.125683 0.0541357 -0.952 255 167 0
-0.124701 0.05442 -0.957 255 130 0
-0.12299 0.0543897 -0.957 255 130 0
-0.121348 0.0543897 -0.957 255 130 0
-0.118581 0.0538782 -0.948 255 203 0
-0.117325 0.0540487 -0.951 255 176 0
-0.115399 0.0539112 -0.949 255 195 0
-0.111374 0.0527751 -0.929 177 255 76
-0.108009 0.0519229 -0.914 83 255 170
-0.103647 0.0505595 -0.89 0 216 255
-0.102465 0.05073 -0.893 0 229 255
-0.100536 0.0505301 -0.89 0 216 255
-0.0984545 0.0502462 -0.885 0 190 255
-0.0964999 0.0500191 -0.881 0 171 255
-0.0947745 0.0499055 -0.879 0 160 255
-0.0931186 0.0498255 -0.878 0 153 255
-0.0916147 0.0498255 -0.878 0 153 255
-0.0899056 0.049712 -0.876 0 138 255
-0.0881024 0.0495417 -0.873 0 115 255
-0.0867063 0.0495985 -0.874 0 122 255
-0.0851118 0.0495417 -0.873 0 115 255
-0.0830954 0.0492329 -0.868 0 81 254
-0.0812334 0.0490061 -0.864 0 51 255
-0.0796619 0.0489493 -0.863 0 42 254
-0.0780033 0.0488359 -0.861 0 25 254
-0.0764405 0.0487792 -0.86 0 17 254
-0.0751074 0.0488697 -0.862 0 33 254
-0.0732907 0.048643 -0.858 0 4 255
-0.0725759 0.0491532 -0.867 0 73 254
-0.0706824 0.0488697 -0.862 0 33 254
-0.0689665 0.0486997 -0.859 0 10 255
-0.0673395 0.0485863 -0.857 0 0 253
-0.0657961 0.0485296 -0.856 0 0 245
-0.0642965 0.0485032 -0.856 0 0 245
-0.0629059 0.0485599 -0.857 0 0 253
-0.0612969 0.0484466 -0.855 0 0 235
-0.0598347 0.0484466 -0.855 0 0 235
-0.0582359 0.0483332 -0.853 0 0 215
-0.0567771 0.0483332 -0.853 0 0 215
-0.0553831 0.0483899 -0.854 0 0 225
-0.0538338 0.0483102 -0.853 0 0 215
-0.0522528 0.0481969 -0.851 0 0 202
-0.0507385 0.0481403 -0.85 0 0 196
-0.0492855 0.0481403 -0.85 0 0 196
-0.0478325 0.0481403 -0.85 0 0 196
-0.0463249 0.0480837 -0.849 0 0 190
-0.0448208 0.048027 -0.848 0 0 185
-0.0433712 0.048027 -0.848 0 0 185
-0.0419711 0.0480837 -0.849 0 0 190
-0.0404721 0.048027 -0.848 0 0 185
-0.0389557 0.0479448 -0.847 0 0 181
-0.0374643 0.0478882 -0.846 0 0 177
-0.0360189 0.0478882 -0.846 0 0 177
-0.0345327 0.0478316 -0.845 0 0 172
-0.0330498 0.047775 -0.844 0 0 168
-0.0316079 0.047775 -0.844 0 0 168
-0.0301659 0.047775 -0.844 0 0 168
-0.0286559 0.0476618 -0.842 0 0 159
-0.0272173 0.0476618 -0.842 0 0 159
-0.0257788 0.0476618 -0.842 0 0 159
-0.0243113 0.0476052 -0.841 0 0 155
-0.0228473 0.0475486 -0.84 0 0 151
-0.0214377 0.0476052 -0.841 0 0 155
-0.0200008 0.0476052 -0.841 0 0 155
-0.018564 0.0476052 -0.841 0 0 155
-0.0171271 0.0476052 -0.841 0 0 155
-0.0156829 0.0475826 -0.841 0 0 155
-0.0142636 0.0476392 -0.842 0 0 159
-0.0128258 0.0476392 -0.842 0 0 159
-0.0114014 0.0476957 -0.843 0 0 164
-0.00997368 0.0477523 -0.844 0 0 168
-0.00855262 0.0478655 -0.846 0 0 177
-0.00712472 0.0479786 -0.848 0 0 185
-0.00568331 0.0480352 -0.849 0 0 190
-0.00423848 0.0480918 -0.85 0 0 196
-0.00278695 0.0480918 -0.85 0 0 196
-0.00133542 0.0480918 -0.85 0 0 196
0.000116103 0.0480918 -0.85 0 0 196
0.00156763 0.0480918 -0.85 0 0 196
0.00302626 0.0482049 -0.852 0 0 209
0.0045075 0.0484878 -0.857 0 0 253
0.00597098 0.0484878 -0.857 0 0 253
0.00740843 0.0483181 -0.854 0 0 225
0.00887717 0.0483747 -0.855 0 0 235
0.0103614 0.0484878 -0.857 0 0 253
0.0118663 0.0486576 -0.86 0 17 254
0.0133504 0.0487141 -0.861 0 25 254
0.0148035 0.0486576 -0.86 0 17 254
0.016291 0.0487141 -0.861 0 25 254
0.0177904 0.0487939 -0.862 0 33 254
0.0192855 0.0488505 -0.863 0 42 254
0.0207599 0.0488505 -0.863 0 42 254
0.0222343 0.0488505 -0.863 0 42 254
0.0237087 0.0488505 -0.863 0 42 254
0.0251832 0.0488505 -0.863 0 42 254
0.0266576 0.0488505 -0.863 0 42 254
0.028132 0.0488505 -0.863 0 42 254
0.0296065 0.0488505 -0.863 0 42 254
0.0312249 0.0490769 -0.867 0 73 254
0.0326307 0.0489637 -0.865 0 58 255
0.0340297 0.0488505 -0.863 0 42 254
0.0355042 0.0488505 -0.863 0 42 254
0.0369786 0.0488505 -0.863 0 42 254
0.038453 0.0488505 -0.863 0 42 254
0.0398812 0.0487939 -0.862 0 33 254
0.041424 0.0488766 -0.863 0 42 254
0.0429489 0.0489332 -0.864 0 51 255
0.0443744 0.0488766 -0.863 0 42 254
0.0457965 0.0488199 -0.862 0 33 254
0.0472151 0.0487633 -0.861 0 25 254
0.0486869 0.0487633 -0.861 0 25 254
0.050217 0.0488199 -0.862 0 33 254
0.0516905 0.0488199 -0.862 0 33 254
0.052979 0.04865 -0.859 0 10 255
0.0544733 0.0486732 -0.859 0 10 255
0.0558773 0.0486166 -0.858 0 4 255
0.0573446 0.0486166 -0.858 0 4 255
0.058812 0.0486166 -0.858 0 4 255
0.0602794 0.0486166 -0.858 0 4 255
0.0616028 0.0485032 -0.856 0 0 245
0.0632141 0.0486166 -0.858 0 4 255
0.0647568 0.0486732 -0.859 0 10 255
0.0661847 0.048643 -0.858 0 4 255
0.0677318 0.0486997 -0.859 0 10 255
0.0692016 0.0486997 -0.859 0 10 255
0.0706715 0.0486997 -0.859 0 10 255
0.0721414 0.0486997 -0.859 0 10 255
0.0736969 0.0487564 -0.86 0 17 254
0.0753786 0.0488926 -0.862 0 33 254
0.0770326 0.0490061 -0.864 0 51 255
0.0785117 0.0490061 -0.864 0 51 255
0.0800834 0.0490628 -0.865 0 58 255
0.0816586 0.0491195 -0.866 0 66 254
0.0830451 0.0490628 -0.865 0 58 255
0.0844711 0.049031 -0.864 0 51 255
0.0860505 0.0490877 -0.865 0 58 255
0.0878357 0.049258 -0.868 0 81 254
0.0895282 0.0493715 -0.87 0 94 254
0.0916461 0.049712 -0.876 0 138 255
0.0932964 0.049792 -0.877 0 145 254
0.0951236 0.0499623 -0.88 0 165 254
0.0974002 0.0503597 -0.887 0 199 255
0.0990317 0.0504165 -0.888 0 205 254
0.10112 0.0507004 -0.893 0 229 255
0.10317 0.0509572 -0.897 0 246 255
0.104941 0.0510708 -0.899 2 255 251
0.106601 0.0511276 -0.9 8 255 245
0.108745 0.0514117 -0.905 40 255 213
0.110297 0.0514117 -0.905 40 255 213
0.112269 0.0516049 -0.908 50 255 203
0.113952 0.0516617 -0.909 54 255 199
0.115511 0.0516617 -0.909 54 255 199
0.11707 0.0516617 -0.909 54 255 199
0.118957 0.0518042 -0.911 65 255 188
0.119594 0.0514061 -0.904 34 255 219
0.120342 0.0510649 -0.898 0 251 255
0.122155 0.0511787 -0.9 8 255 245
0.124172 0.0513743 -0.903 28 255 225
0.124052 0.0506916 -0.891 0 220 255
0.123468 0.0498382 -0.876 0 138 255
-0.155417 0.0549249 -0.994 215 0 0
-0.152713 0.0545695 -0.988 228 0 0
-0.149792 0.0541276 -0.98 249 0 0
-0.147805 0.0540172 -0.978 255 0 0
-0.145598 0.053823 -0.975 255 9 0
-0.143333 0.0536022 -0.971 255 26 0
-0.141373 0.0534918 -0.969 255 35 0
-0.13942 0.0533814 -0.967 255 46 0
-0.137546 0.0532991 -0.966 255 52 0
-0.135747 0.053244 -0.965 255 58 0
-0.133534 0.0530233 -0.961 255 92 0
-0.131609 0.0529129 -0.959 255 111 0
-0.129222 0.0526114 -0.954 255 150 0
-0.127317 0.0525011 -0.952 255 167 0
-0.125815 0.0525563 -0.953 255 157 0
-0.124831 0.052832 -0.958 255 120 0
-0.123118 0.0528026 -0.958 255 120 0
-0.121221 0.0526924 -0.956 255 137 0
-0.118956 0.0524168 -0.951 255 176 0
-0.117941 0.0526924 -0.956 255 137 0
-0.115399 0.0522835 -0.949 255 195 0
-0.113053 0.0519529 -0.943 255 237 0
-0.10919 0.0509061 -0.924 144 255 109
-0.104112 0.0492533 -0.894 0 233 254
-0.102061 0.0490044 -0.89 0 216 255
-0.10031 0.0488943 -0.888 0 205 254
-0.098232 0.048619 -0.883 0 181 255
-0.0964999 0.0485088 -0.881 0 171 255
-0.0948823 0.0484538 -0.88 0 165 254
-0.0932246 0.0483761 -0.879 0 160 255
-0.091406 0.048211 -0.876 0 138 255
-0.0895977 0.0480459 -0.873 0 115 255
-0.0881024 0.0480459 -0.873 0 115 255
-0.0865079 0.0479908 -0.872 0 107 255
-0.0847763 0.0478564 -0.87 0 94 254
-0.0833826 0.0479115 -0.871 0 100 255
-0.0813274 0.0475814 -0.865 0 58 255
-0.0796619 0.0474714 -0.863 0 42 254
-0.0780033 0.0473614 -0.861 0 25 254
-0.0763516 0.0472514 -0.859 0 10 255
-0.0750203 0.0473392 -0.861 0 25 254
-0.0732907 0.0471743 -0.858 0 4 255
-0.0722411 0.0474492 -0.863 0 42 254
-0.0705184 0.0472842 -0.86 0 17 254
-0.0688059 0.0471193 -0.857 0 0 253
-0.0673395 0.0471193 -0.857 0 0 253
-0.0658372 0.0470937 -0.857 0 0 253
-0.0643716 0.0470937 -0.857 0 0 253
-0.0628325 0.0470388 -0.856 0 0 245
-0.0612969 0.0469838 -0.855 0 0 235
-0.0597647 0.0469289 -0.854 0 0 225
-0.0583042 0.0469289 -0.854 0 0 225
-0.0568436 0.0469289 -0.854 0 0 225
-0.0553831 0.0469289 -0.854 0 0 225
-0.0538338 0.0468516 -0.853 0 0 215
-0.0523142 0.0467966 -0.852 0 0 209
-0.0507981 0.0467417 -0.851 0 0 202
-0.0492855 0.0466868 -0.85 0 0 196
-0.0478325 0.0466868 -0.85 0 0 196
-0.0463249 0.0466319 -0.849 0 0 190
-0.0448208 0.0465769 -0.848 0 0 185
-0.0434224 0.0466319 -0.849 0 0 190
-0.0419711 0.0466319 -0.849 0 0 190
-0.0404505 0.0465521 -0.848 0 0 185
-0.0390017 0.0465521 -0.848 0 0 185
-0.0374643 0.0464423 -0.846 0 0 177
-0.0360189 0.0464423 -0.846 0 0 177
-0.0345327 0.0463874 -0.845 0 0 172
-0.033089 0.0463874 -0.845 0 0 172
-0.0316079 0.0463325 -0.844 0 0 168
-0.0301659 0.0463325 -0.844 0 0 168
-0.0286899 0.0462776 -0.843 0 0 164
-0.0272173 0.0462227 -0.842 0 0 159
-0.0257788 0.0462227 -0.842 0 0 159
-0.0243113 0.0461678 -0.841 0 0 155
-0.0228745 0.0461678 -0.841 0 0 155
-0.0214377 0.0461678 -0.841 0 0 155
-0.0199913 0.0461459 -0.841 0 0 155
-0.0185552 0.0461459 -0.841 0 0 155
-0.0171394 0.0462008 -0.842 0 0 159
-0.0157015 0.0462008 -0.842 0 0 159
-0.0142806 0.0462556 -0.843 0 0 164
-0.012841 0.0462556 -0.843 0 0 164
-0.011415 0.0463105 -0.844 0 0 168
-0.00998549 0.0463654 -0.845 0 0 172
-0.00854251 0.0463654 -0.845 0 0 172
-0.00712472 0.04653 -0.848 0 0 185
-0.00568331 0.0465849 -0.849 0 0 190
-0.00423848 0.0466397 -0.85 0 0 196
-0.00279023 0.0466946 -0.851 0 0 202
-0.00133857 0.0467495 -0.852 0 0 209
0.000116239 0.0466946 -0.851 0 0 202
0.00156947 0.0466946 -0.851 0 0 202
0.00303336 0.0468592 -0.854 0 0 225
0.00451276 0.0470787 -0.858 0 4 255
0.00597795 0.0470787 -0.858 0 4 255
0.00742578 0.0469689 -0.856 0 0 245
0.00889794 0.0470238 -0.857 0 0 253
0.0103856 0.0471336 -0.859 0 10 255
0.0118663 0.0471884 -0.86 0 17 254
0.0133504 0.0472433 -0.861 0 25 254
0.0148379 0.0472982 -0.862 0 33 254
0.0163099 0.0472982 -0.862 0 33 254
0.0178026 0.047353 -0.863 0 42 254
0.0192763 0.047353 -0.863 0 42 254
0.02075 0.047353 -0.863 0 42 254
0.0222343 0.0473755 -0.863 0 42 254
0.0237362 0.0474304 -0.864 0 51 255
0.0251832 0.0473755 -0.863 0 42 254
0.0266576 0.0473755 -0.863 0 42 254
0.028132 0.0473755 -0.863 0 42 254
0.0296065 0.0473755 -0.863 0 42 254
0.0312249 0.0475951 -0.867 0 73 254
0.0325553 0.0473755 -0.863 0 42 254
0.0340297 0.0473755 -0.863 0 42 254
0.0355042 0.0473755 -0.863 0 42 254
0.0369786 0.0473755 -0.863 0 42 254
0.038453 0.0473755 -0.863 0 42 254
0.0398812 0.0473206 -0.862 0 33 254
0.0414019 0.0473755 -0.863 0 42 254
0.0428495 0.0473459 -0.862 0 33 254
0.0442715 0.047291 -0.861 0 25 254
0.0457433 0.047291 -0.861 0 25 254
0.0471603 0.047236 -0.86 0 17 254
0.0486304 0.047236 -0.86 0 17 254
0.0501005 0.047236 -0.86 0 17 254
0.0516305 0.047291 -0.861 0 25 254
0.0530406 0.047236 -0.86 0 17 254
0.0544473 0.0471811 -0.859 0 10 255
0.0559424 0.0472036 -0.859 0 10 255
0.0573446 0.0471487 -0.858 0 4 255
0.0587434 0.0470937 -0.857 0 0 253
0.0601388 0.0470388 -0.856 0 0 245
0.0616028 0.0470388 -0.856 0 0 245
0.0631404 0.0470937 -0.857 0 0 253
0.0647568 0.0472036 -0.859 0 10 255
0.0662259 0.0472036 -0.859 0 10 255
0.0675741 0.0471193 -0.857 0 0 253
0.0691211 0.0471743 -0.858 0 4 255
0.0706715 0.0472293 -0.859 0 10 255
0.0721414 0.0472293 -0.859 0 10 255
0.0736969 0.0472842 -0.86 0 17 254
0.0753433 0.0473942 -0.862 0 33 254
0.0770326 0.0475264 -0.864 0 51 255
0.0786026 0.0475814 -0.865 0 58 255
0.0799909 0.0475264 -0.864 0 51 255
0.0816586 0.0476364 -0.866 0 66 254
0.0831411 0.0476364 -0.866 0 66 254
0.0849168 0.0478014 -0.869 0 87 255
0.0866474 0.0479358 -0.871 0 100 255
0.0883416 0.0480459 -0.873 0 115 255
0.0900427 0.048156 -0.875 0 130 254
0.0919599 0.0483761 -0.879 0 160 255
0.0938908 0.0485962 -0.883 0 181 255
0.0958802 0.0488392 -0.887 0 199 255
0.0977296 0.0490044 -0.89 0 216 255
0.0995893 0.0491696 -0.893 0 229 255
0.101799 0.0494999 -0.899 2 255 251
0.104489 0.0500506 -0.909 54 255 199
0.105875 0.0499696 -0.907 47 255 206
0.10743 0.0499696 -0.907 47 255 206
0.109466 0.0501899 -0.911 65 255 188
0.111028 0.0501899 -0.911 65 255 188
0.112516 0.050157 -0.91 60 255 193
0.114202 0.0502121 -0.911 65 255 188
0.115638 0.050157 -0.91 60 255 193
0.117199 0.050157 -0.91 60 255 193
0.119349 0.0504055 -0.914 83 255 170
0.120785 0.0503503 -0.913 77 255 176
0.121012 0.0497989 -0.903 28 255 225
0.122969 0.0499643 -0.906 44 255 209
0.123347 0.0494921 -0.897 0 246 255
0.125305 0.0496576 -0.9 8 255 245
0.125441 0.0491058 -0.89 0 216 255
-0.155505 0.0532452 -0.995 213 0 0
-0.153486 0.0531381 -0.993 217 0 0
-0.149792 0.0524425 -0.98 249 0 0
-0.147956 0.052389 -0.979 251 0 0
-0.146046 0.0523078 -0.978 255 0 0
-0.143923 0.0521474 -0.975 255 9 0
-0.141665 0.0519334 -0.971 255 26 0
-0.139493 0.0517467 -0.968 255 39 0
-0.137831 0.0517467 -0.968 255 39 0
-0.135747 0.0515863 -0.965 255 58 0
-0.133534 0.0513725 -0.961 255 92 0
-0.131819 0.0513475 -0.961 255 92 0
-0.129222 0.0509735 -0.954 255 150 0
-0.127317 0.0508666 -0.952 255 167 0
-0.126871 0.0513475 -0.961 255 92 0
-0.124892 0.0512121 -0.959 255 111 0
-0.123118 0.0511587 -0.958 255 120 0
-0.121348 0.0511053 -0.957 255 130 0
-0.119832 0.0511587 -0.958 255 120 0
-0.118013 0.0510827 -0.957 255 130 0
-0.115277 0.0506023 -0.948 255 203 0
-0.112573 0.0501219 -0.939 246 255 7
-0.107063 0.0483605 -0.906 44 255 209
-0.10516 0.0482003 -0.903 28 255 225
-0.10229 0.0475854 -0.892 0 224 255
-0.10031 0.047372 -0.888 0 205 254
-0.0983433 0.0471587 -0.884 0 186 255
-0.0968285 0.0471587 -0.884 0 186 255
-0.0950535 0.04703 -0.882 0 176 255
-0.0931186 0.0468167 -0.878 0 153 255
-0.0913017 0.0466567 -0.875 0 130 254
-0.0893924 0.0464434 -0.871 0 100 255
-0.0879006 0.0464434 -0.871 0 100 255
-0.0864087 0.0464434 -0.871 0 100 255
-0.0847763 0.0463665 -0.87 0 94 254
-0.0829997 0.0462066 -0.867 0 73 254
-0.0812334 0.0460468 -0.864 0 51 255
-0.0795696 0.0459402 -0.862 0 33 254
-0.0780939 0.0459402 -0.862 0 33 254
-0.0763159 0.0457589 -0.859 0 10 255
-0.0751945 0.0459719 -0.863 0 42 254
-0.0733761 0.0457589 -0.859 0 10 255
