ply
format ascii 1.0
element vertex 1284
property float32 x
property float32 y
property float32 z
property uchar diffuse_red
property uchar diffuse_green
property uchar diffuse_blue
end_header
-0.0113355 0.164063 -0.952 255 85 0
-0.00981969 0.166131 -0.964 232 0 0
-0.00802551 0.163374 -0.948 255 129 0
-0.00637408 0.162857 -0.945 255 156 0
-0.00480331 0.164753 -0.956 255 43 0
-0.00313192 0.163374 -0.948 255 129 0
-0.00150389 0.163719 -0.95 255 109 0
0.000131575 0.164753 -0.956 255 43 0
0.00177468 0.16458 -0.955 255 53 0
0.00337139 0.16234 -0.942 255 176 0
0.00499756 0.162512 -0.943 255 169 0
0.00662016 0.162512 -0.943 255 169 0
0.00821653 0.161995 -0.94 255 195 0
0.00983396 0.161995 -0.94 255 195 0
0.0114392 0.161823 -0.939 255 205 0
0.0130688 0.161995 -0.94 255 195 0
0.0146863 0.161995 -0.94 255 195 0
0.016321 0.162168 -0.941 255 185 0
0.017902 0.161823 -0.939 255 205 0
0.0195593 0.162168 -0.941 255 185 0
0.021111 0.161651 -0.938 255 215 0
0.0227492 0.161823 -0.939 255 205 0
0.0243649 0.161823 -0.939 255 205 0
0.0259253 0.161478 -0.937 255 226 0
0.0275375 0.161478 -0.937 255 226 0
0.0290876 0.161134 -0.935 255 247 0
0.0306964 0.161134 -0.935 255 247 0
0.0322707 0.160961 -0.934 251 255 2
0.0339503 0.161306 -0.936 255 237 0
0.0355395 0.161209 -0.935 255 247 0
0.0371888 0.161381 -0.936 255 237 0
0.0387587 0.161209 -0.935 255 247 0
0.0404546 0.161554 -0.937 255 226 0
0.0419779 0.161209 -0.935 255 247 0
0.0434942 0.160864 -0.933 240 255 13
0.0451003 0.160864 -0.933 240 255 13
0.0467065 0.160864 -0.933 240 255 13
0.0482608 0.160692 -0.932 229 255 24
0.0498652 0.160692 -0.932 229 255 24
0.0515249 0.160864 -0.933 240 255 13
0.0532706 0.161287 -0.935 255 247 0
0.0548809 0.161287 -0.935 255 247 0
0.0566725 0.161804 -0.938 255 215 0
0.0582259 0.161632 -0.937 255 226 0
0.0599675 0.161977 -0.939 255 205 0
0.0616503 0.162149 -0.94 255 195 0
0.0632019 0.161977 -0.939 255 205 0
0.0650953 0.162667 -0.943 255 169 0
0.0669317 0.163184 -0.946 255 149 0
0.0685311 0.163113 -0.945 255 156 0
0.0700854 0.16294 -0.944 255 163 0
0.0717883 0.163113 -0.945 255 156 0
0.0736499 0.163631 -0.948 255 129 0
0.0754425 0.163976 -0.95 255 109 0
0.0773231 0.164494 -0.953 255 73 0
0.0791312 0.164839 -0.955 255 53 0
0.0808184 0.164923 -0.955 255 53 0
0.0824651 0.164923 -0.955 255 53 0
0.0841117 0.164923 -0.955 255 53 0
0.0856686 0.164751 -0.954 255 63 0
0.0874966 0.165096 -0.956 255 43 0
0.089518 0.165787 -0.96 255 1 0
0.0913991 0.166198 -0.962 243 0 0
0.0937356 0.167407 -0.969 216 0 0
-0.0200387 0.16669 -0.977 190 0 0
-0.0179818 0.163278 -0.957 255 33 0
-0.0162327 0.162254 -0.951 255 97 0
-0.0146577 0.162936 -0.955 255 53 0
-0.01296 0.162254 -0.951 255 97 0
-0.0113117 0.162083 -0.95 255 109 0
-0.0097225 0.162844 -0.955 255 53 0
-0.00798712 0.160969 -0.944 255 163 0
-0.00637721 0.16131 -0.946 255 149 0
-0.00478051 0.162333 -0.952 255 85 0
-0.00314335 0.162333 -0.952 255 85 0
-0.00150462 0.162162 -0.951 255 97 0
0.000130125 0.16131 -0.946 255 149 0
0.00175324 0.160969 -0.944 255 163 0
0.00338737 0.16148 -0.947 255 139 0
0.00498414 0.160457 -0.941 255 185 0
0.00660939 0.160627 -0.942 255 176 0
0.00822935 0.160627 -0.942 255 176 0
0.0098493 0.160627 -0.942 255 176 0
0.0114758 0.160718 -0.942 255 176 0
0.0130966 0.160718 -0.942 255 176 0
0.0147019 0.160548 -0.941 255 185 0
0.0163037 0.160377 -0.94 255 195 0
0.0179211 0.160377 -0.94 255 195 0
0.0195593 0.160548 -0.941 255 185 0
0.021156 0.160377 -0.94 255 195 0
0.022725 0.160036 -0.938 255 215 0
0.0243389 0.160036 -0.938 255 215 0
0.0259253 0.159865 -0.937 255 226 0
0.0275081 0.159695 -0.936 255 237 0
0.0290254 0.159183 -0.933 240 255 13
0.0306307 0.159183 -0.933 240 255 13
0.0322016 0.159012 -0.932 229 255 24
0.0338052 0.159012 -0.932 229 255 24
0.0353709 0.158842 -0.931 218 255 35
0.0369729 0.158842 -0.931 218 255 35
0.0385748 0.158842 -0.931 218 255 35
0.0403494 0.159524 -0.935 255 247 0
0.0417534 0.158745 -0.93 205 255 48
0.0433544 0.158745 -0.93 205 255 48
0.044907 0.158575 -0.929 191 255 62
0.0465062 0.158575 -0.929 191 255 62
0.048209 0.158916 -0.931 218 255 35
0.0498117 0.158916 -0.931 218 255 35
0.0515249 0.159258 -0.933 240 255 13
0.0532449 0.159599 -0.935 255 247 0
0.0547958 0.159428 -0.934 251 255 2
0.0563433 0.159258 -0.933 240 255 13
0.0580395 0.159505 -0.934 251 255 2
0.059712 0.159676 -0.935 255 247 0
0.0613224 0.159676 -0.935 255 247 0
0.063 0.159847 -0.936 255 237 0
0.0648192 0.160359 -0.939 255 205 0
0.0665072 0.16053 -0.94 255 195 0
0.0681262 0.16053 -0.94 255 195 0
0.0698935 0.160871 -0.942 255 176 0
0.0717883 0.161484 -0.945 255 156 0
0.0735722 0.161826 -0.947 255 139 0
0.0752837 0.161996 -0.948 255 129 0
0.0768363 0.161826 -0.947 255 139 0
0.0787998 0.162509 -0.951 255 97 0
0.0806079 0.162851 -0.953 255 73 0
0.0823366 0.163022 -0.954 255 63 0
0.0840237 0.163105 -0.954 255 63 0
0.0856686 0.163105 -0.954 255 63 0
0.087222 0.162934 -0.953 255 73 0
0.0890517 0.163276 -0.955 255 53 0
0.0908883 0.163618 -0.957 255 33 0
0.0922846 0.163169 -0.954 255 63 0
0.094521 0.164196 -0.96 255 1 0
0.0976797 0.166761 -0.975 196 0 0
-0.0338302 0.166697 -0.987 170 0 0
-0.0302178 0.165515 -0.98 182 0 0
-0.0285315 0.165515 -0.98 182 0 0
-0.0263248 0.162306 -0.961 249 0 0
-0.0247086 0.162552 -0.963 238 0 0
-0.0227892 0.160695 -0.952 255 85 0
-0.0209743 0.159345 -0.944 255 163 0
-0.0195764 0.161201 -0.955 255 53 0
-0.0178402 0.160357 -0.95 255 109 0
-0.0162576 0.160864 -0.953 255 73 0
-0.0145574 0.160189 -0.949 255 120 0
-0.0129254 0.160189 -0.949 255 120 0
-0.0113053 0.160357 -0.95 255 109 0
-0.00969196 0.160695 -0.952 255 85 0
-0.00800404 0.159682 -0.946 255 149 0
-0.00639743 0.160189 -0.949 255 120 0
-0.00475038 0.159682 -0.946 255 149 0
-0.00313015 0.16002 -0.948 255 129 0
-0.00149671 0.159682 -0.946 255 149 0
0.000129987 0.159513 -0.945 255 156 0
0.00175139 0.159176 -0.943 255 169 0
0.00337664 0.159345 -0.944 255 163 0
0.00499474 0.159176 -0.943 255 169 0
0.00662343 0.159345 -0.944 255 163 0
0.0081944 0.158332 -0.938 255 215 0
0.00982839 0.158669 -0.94 255 195 0
0.0114449 0.158669 -0.94 255 195 0
0.0130753 0.158838 -0.941 255 185 0
0.0147248 0.159176 -0.943 255 169 0
0.0163291 0.159007 -0.942 255 176 0
0.01793 0.158838 -0.941 255 185 0
0.0195483 0.158838 -0.941 255 185 0
0.0210765 0.158163 -0.937 255 226 0
0.0226394 0.157825 -0.935 255 247 0
0.0242214 0.157657 -0.934 251 255 2
0.0258146 0.157577 -0.933 240 255 13
0.0274494 0.157746 -0.934 251 255 2
0.0290254 0.157577 -0.933 240 255 13
0.0305979 0.157408 -0.932 229 255 24
0.032167 0.157239 -0.931 218 255 35
0.0338052 0.157408 -0.932 229 255 24
0.0354089 0.157408 -0.932 229 255 24
0.0369332 0.15707 -0.93 205 255 48
0.0385334 0.15707 -0.93 205 255 48
0.0401336 0.15707 -0.93 205 255 48
0.0417338 0.15707 -0.93 205 255 48
0.0432875 0.156901 -0.929 191 255 62
0.0447893 0.156564 -0.927 162 255 91
0.0464344 0.156732 -0.928 176 255 77
0.0481055 0.156975 -0.929 191 255 62
0.0498117 0.157313 -0.931 218 255 35
0.0515249 0.157651 -0.933 240 255 13
0.053131 0.157651 -0.933 240 255 13
0.0546785 0.157482 -0.932 229 255 24
0.0562829 0.157482 -0.932 229 255 24
0.0580116 0.15782 -0.934 251 255 2
0.0596832 0.157989 -0.935 255 247 0
0.0613584 0.158158 -0.936 255 237 0
0.0629327 0.158065 -0.935 255 247 0
0.0645431 0.158065 -0.935 255 247 0
0.0662949 0.158403 -0.937 255 226 0
0.0679812 0.158572 -0.938 255 215 0
0.0699677 0.159417 -0.943 255 169 0
0.0716678 0.159586 -0.944 255 163 0
0.0733713 0.159755 -0.945 255 156 0
0.074966 0.159685 -0.944 255 163 0
0.076674 0.159855 -0.945 255 156 0
0.0784683 0.160193 -0.947 255 139 0
0.0801004 0.160193 -0.947 255 139 0
0.0818187 0.160362 -0.948 255 129 0
0.0833644 0.160193 -0.947 255 139 0
0.0849067 0.160024 -0.946 255 149 0
0.0871305 0.161121 -0.952 255 85 0
0.0888652 0.16129 -0.953 255 73 0
0.0905085 0.16129 -0.953 255 73 0
0.0923451 0.161629 -0.955 255 53 0
0.0941886 0.161967 -0.957 255 33 0
0.0962771 0.162708 -0.961 249 0 0
0.09875 0.164063 -0.969 216 0 0
0.101665 0.166095 -0.981 181 0 0
-0.0388068 0.164497 -0.984 176 0 0
-0.0370005 0.163995 -0.981 181 0 0
-0.0351846 0.163401 -0.978 186 0 0
-0.0330917 0.161396 -0.966 225 0 0
-0.0310725 0.159558 -0.955 255 53 0
-0.0295535 0.160227 -0.959 255 12 0
-0.0279334 0.160394 -0.96 255 1 0
-0.0261456 0.159558 -0.955 255 53 0
-0.0245033 0.159558 -0.955 255 53 0
-0.0228371 0.159391 -0.954 255 63 0
-0.0211965 0.159391 -0.954 255 63 0
-0.0195354 0.159224 -0.953 255 73 0
-0.0178214 0.158556 -0.949 255 120 0
-0.0162064 0.158723 -0.95 255 109 0
-0.0145727 0.158723 -0.95 255 109 0
-0.0128573 0.157721 -0.944 255 163 0
-0.0112577 0.158055 -0.946 255 149 0
-0.00961052 0.157721 -0.944 255 163 0
-0.00800404 0.158055 -0.946 255 149 0
-0.0063435 0.157219 -0.941 255 185 0
-0.00473029 0.157386 -0.942 255 176 0
-0.00311364 0.157553 -0.943 255 169 0
-0.0014888 0.157219 -0.941 255 185 0
0.00012985 0.157721 -0.944 255 163 0
0.00174581 0.157052 -0.94 255 195 0
0.00335518 0.156718 -0.938 255 215 0
0.00497885 0.157052 -0.94 255 195 0
0.00657431 0.156551 -0.937 255 226 0
0.0081944 0.156718 -0.938 255 215 0
0.00978657 0.156384 -0.936 255 237 0
0.0113962 0.156384 -0.936 255 237 0
0.0130336 0.156718 -0.938 255 215 0
0.0146779 0.157052 -0.94 255 195 0
0.0162598 0.156718 -0.938 255 215 0
0.0178919 0.156885 -0.939 255 205 0
0.0194652 0.156551 -0.937 255 226 0
0.0210765 0.156551 -0.937 255 226 0
0.0226637 0.156384 -0.936 255 237 0
0.0242474 0.156217 -0.935 255 247 0
0.0258276 0.15605 -0.934 251 255 2
0.0274338 0.15605 -0.934 251 255 2
0.0290089 0.155883 -0.933 240 255 13
0.0305806 0.155716 -0.932 229 255 24
0.0321488 0.155549 -0.931 218 255 35
0.033769 0.155637 -0.931 218 255 35
0.0353329 0.155469 -0.93 205 255 48
0.0368934 0.155302 -0.929 191 255 62
0.0384505 0.155135 -0.928 176 255 77
0.0400473 0.155135 -0.928 176 255 77
0.0416441 0.155135 -0.928 176 255 77
0.0431011 0.154634 -0.925 134 255 119
0.0445961 0.154299 -0.923 107 255 146
0.0462843 0.154634 -0.925 134 255 119
0.0481347 0.155469 -0.93 205 255 48
0.0497884 0.155637 -0.931 218 255 35
0.0513904 0.155637 -0.931 218 255 35
0.0530741 0.155877 -0.932 229 255 24
0.0546198 0.15571 -0.931 218 255 35
0.0562829 0.155877 -0.932 229 255 24
0.0580116 0.156211 -0.934 251 255 2
0.0596832 0.156379 -0.935 255 247 0
0.0612928 0.156379 -0.935 255 247 0
0.0629024 0.156379 -0.935 255 247 0
0.064374 0.156044 -0.933 240 255 13
0.0662242 0.156621 -0.936 255 237 0
0.0679087 0.156789 -0.937 255 226 0
0.0697451 0.157291 -0.94 255 195 0
0.0715159 0.157625 -0.942 255 176 0
0.073216 0.157793 -0.943 255 169 0
0.0747608 0.157625 -0.942 255 176 0
0.0764643 0.157793 -0.943 255 169 0
0.0783855 0.158393 -0.946 255 149 0
0.0799312 0.158225 -0.945 255 156 0
0.0816461 0.158393 -0.946 255 149 0
0.0832764 0.158393 -0.946 255 149 0
0.0849067 0.158393 -0.946 255 149 0
0.086537 0.158393 -0.946 255 149 0
0.088399 0.158809 -0.948 255 129 0
0.0900336 0.158809 -0.948 255 129 0
0.092055 0.159479 -0.952 255 85 0
0.0940902 0.160149 -0.956 255 43 0
0.0957385 0.160149 -0.956 255 43 0
0.0970813 0.159647 -0.953 255 73 0
0.0997997 0.161385 -0.963 238 0 0
0.102725 0.163396 -0.975 196 0 0
0.105478 0.165072 -0.985 174 0 0
-0.0424263 0.163703 -0.99 163 0 0
-0.0402302 0.161719 -0.978 186 0 0
-0.0386272 0.162049 -0.98 182 0 0
-0.0366403 0.160727 -0.972 206 0 0
-0.0348249 0.160065 -0.968 219 0 0
-0.0330917 0.159734 -0.966 225 0 0
-0.0313328 0.159238 -0.963 238 0 0
-0.0297384 0.159569 -0.965 229 0 0
-0.0277879 0.157916 -0.955 255 53 0
-0.0260087 0.157089 -0.95 255 109 0
-0.0243237 0.156758 -0.948 255 129 0
-0.0227413 0.157089 -0.95 255 109 0
-0.0211298 0.157254 -0.951 255 97 0
-0.0194124 0.156593 -0.947 255 139 0
-0.0178026 0.156758 -0.948 255 129 0
-0.0161212 0.156262 -0.945 255 156 0
-0.0144654 0.155931 -0.943 255 169 0
-0.0128437 0.155931 -0.943 255 169 0
-0.0112577 0.156427 -0.946 255 149 0
-0.00955961 0.15527 -0.939 255 205 0
-0.00796174 0.155601 -0.941 255 185 0
-0.0063435 0.155601 -0.941 255 185 0
-0.0047232 0.155532 -0.941 255 185 0
-0.00310237 0.155367 -0.94 255 195 0
-0.00149289 0.156028 -0.944 255 163 0
0.000129655 0.155863 -0.943 255 169 0
0.00174505 0.155367 -0.94 255 195 0
0.00335013 0.154871 -0.937 255 226 0
0.00496608 0.155037 -0.938 255 215 0
0.00657431 0.154939 -0.937 255 226 0
0.00817693 0.154774 -0.936 255 237 0
0.00976566 0.154443 -0.934 251 255 2
0.0113597 0.154278 -0.933 240 255 13
0.0130197 0.154939 -0.937 255 226 0
0.0145686 0.154278 -0.933 240 255 13
0.0161558 0.154112 -0.932 229 255 24
0.0177395 0.153947 -0.931 218 255 35
0.0193613 0.154112 -0.932 229 255 24
0.020964 0.154112 -0.932 229 255 24
0.0226152 0.154443 -0.934 251 255 2
0.0241955 0.154278 -0.933 240 255 13
0.0257447 0.153947 -0.931 218 255 35
0.0273457 0.153947 -0.931 218 255 35
0.0289778 0.154112 -0.932 229 255 24
0.0306134 0.154278 -0.933 240 255 13
0.0321488 0.153947 -0.931 218 255 35
0.0336774 0.153616 -0.929 191 255 62
0.0353129 0.153782 -0.93 205 255 48
0.0368329 0.153451 -0.928 176 255 77
0.0383459 0.15312 -0.926 148 255 105
0.0399384 0.15312 -0.926 148 255 105
0.0415543 0.153207 -0.926 148 255 105
0.0430545 0.152876 -0.924 120 255 133
0.0445477 0.152545 -0.922 95 255 158
0.0461842 0.152711 -0.923 107 255 146
0.0480312 0.153538 -0.928 176 255 77
0.0495745 0.153372 -0.927 162 255 91
0.05128 0.153703 -0.929 191 255 62
0.0529354 0.153869 -0.93 205 255 48
0.0545356 0.153869 -0.93 205 255 48
0.0561358 0.153869 -0.93 205 255 48
0.0578252 0.154106 -0.931 218 255 35
0.0594279 0.154106 -0.931 218 255 35
0.0612273 0.154603 -0.934 251 255 2
0.0629697 0.154934 -0.936 255 237 0
0.064374 0.154437 -0.933 240 255 13
0.0659801 0.154437 -0.933 240 255 13
0.0677311 0.154768 -0.935 255 247 0
0.0694149 0.154934 -0.936 255 237 0
0.0713641 0.155671 -0.94 255 195 0
0.0730607 0.155837 -0.941 255 185 0
0.0748401 0.156168 -0.943 255 169 0
0.0763832 0.156002 -0.942 255 176 0
0.0780884 0.156168 -0.943 255 169 0
0.0795435 0.155837 -0.941 255 185 0
0.0813872 0.156265 -0.943 255 169 0
0.0832764 0.156762 -0.946 255 149 0
0.0849067 0.156762 -0.946 255 149 0
0.0864456 0.156596 -0.945 255 156 0
0.0881674 0.156762 -0.946 255 149 0
0.0897977 0.156762 -0.946 255 149 0
0.0919583 0.157671 -0.951 255 97 0
0.0936965 0.157837 -0.952 255 85 0
0.095338 0.157837 -0.952 255 85 0
0.0972851 0.158334 -0.955 255 53 0
0.0987246 0.158003 -0.953 255 73 0
0.101355 0.159558 -0.962 243 0 0
0.103336 0.160055 -0.965 229 0 0
0.105545 0.160885 -0.97 212 0 0
-0.0441288 0.162 -0.99 163 0 0
-0.0419978 0.160364 -0.98 182 0 0
-0.0400245 0.159218 -0.973 203 0 0
-0.0381936 0.158564 -0.969 216 0 0
-0.0364141 0.158073 -0.966 225 0 0
-0.0347169 0.157909 -0.965 229 0 0
-0.0330574 0.157909 -0.965 229 0 0
-0.0312027 0.156927 -0.959 255 12 0
-0.029461 0.156436 -0.956 255 43 0
-0.0276133 0.155291 -0.949 255 120 0
-0.0259813 0.155291 -0.949 255 120 0
-0.024375 0.155454 -0.95 255 109 0
-0.0227553 0.15555 -0.951 255 97 0
-0.0210095 0.154732 -0.946 255 149 0
-0.0193629 0.154569 -0.945 255 156 0
-0.0177197 0.154405 -0.944 255 163 0
-0.016097 0.154405 -0.944 255 163 0
-0.014413 0.153751 -0.94 255 195 0
-0.0128244 0.154078 -0.942 255 176 0
-0.0111814 0.153751 -0.94 255 195 0
-0.00958596 0.154078 -0.942 255 176 0
-0.00796671 0.154078 -0.942 255 176 0
-0.00634073 0.153914 -0.941 255 185 0
-0.0047232 0.153914 -0.941 255 185 0
-0.00310567 0.153914 -0.941 255 185 0
-0.00148815 0.153914 -0.941 255 185 0
0.00012938 0.153914 -0.941 255 185 0
0.00174319 0.153587 -0.939 255 205 0
0.00335728 0.153587 -0.939 255 205 0
0.00497137 0.153587 -0.939 255 205 0
0.00656442 0.153096 -0.936 255 237 0
0.00815589 0.152769 -0.934 251 255 2
0.00974048 0.152442 -0.932 229 255 24
0.0113669 0.152769 -0.934 251 255 2
0.0129863 0.152933 -0.935 255 247 0
0.0145779 0.152769 -0.934 251 255 2
0.016166 0.152606 -0.933 240 255 13
0.0177317 0.152279 -0.931 218 255 35
0.0193113 0.152115 -0.93 205 255 48
0.0209099 0.152115 -0.93 205 255 48
0.0225327 0.152279 -0.931 218 255 35
0.0241436 0.152345 -0.931 218 255 35
0.0256617 0.151854 -0.928 176 255 77
0.027287 0.152018 -0.929 191 255 62
0.0289157 0.152182 -0.93 205 255 48
0.0305806 0.152509 -0.932 229 255 24
0.0320798 0.152018 -0.929 191 255 62
0.0336049 0.151691 -0.927 162 255 91
0.035237 0.151854 -0.928 176 255 77
0.0367535 0.151527 -0.926 148 255 105
0.0383045 0.151364 -0.925 134 255 119
0.0398952 0.151364 -0.925 134 255 119
0.0415308 0.151527 -0.926 148 255 105
0.0431232 0.151527 -0.926 148 255 105
0.0445708 0.151036 -0.923 107 255 146
0.0461842 0.151122 -0.923 107 255 146
0.0477724 0.151122 -0.923 107 255 146
0.0493071 0.150958 -0.922 95 255 158
0.0509488 0.151122 -0.923 107 255 146
0.0526508 0.151449 -0.925 134 255 119
0.0542424 0.151449 -0.925 134 255 119
0.0560151 0.15194 -0.928 176 255 77
0.0575498 0.151777 -0.927 162 255 91
0.0591449 0.151777 -0.927 162 255 91
0.0609651 0.152339 -0.93 205 255 48
0.0626333 0.152503 -0.931 218 255 35
0.064236 0.152503 -0.931 218 255 35
0.0659094 0.152667 -0.932 229 255 24
0.0676587 0.152994 -0.934 251 255 2
0.0691924 0.152831 -0.933 240 255 13
0.0709503 0.153158 -0.935 255 247 0
0.0729479 0.153977 -0.94 255 195 0
0.0746814 0.154215 -0.941 255 185 0
0.0763832 0.154379 -0.942 255 176 0
0.0779228 0.154215 -0.941 255 185 0
0.0795435 0.154215 -0.941 255 185 0
0.0811642 0.154215 -0.941 255 185 0
0.0830488 0.154707 -0.944 255 163 0
0.084817 0.154967 -0.945 255 156 0
0.086537 0.155131 -0.946 255 149 0
0.0881674 0.155131 -0.946 255 149 0
0.0898926 0.155295 -0.947 255 139 0
0.0917179 0.155623 -0.949 255 120 0
0.093255 0.155459 -0.948 255 129 0
0.0951377 0.155867 -0.95 255 109 0
0.0974888 0.157015 -0.957 255 33 0
0.0990353 0.156851 -0.956 255 43 0
0.100789 0.157015 -0.957 255 33 0
0.102011 0.156359 -0.953 255 73 0
0.104674 0.157898 -0.962 243 0 0
0.106997 0.158882 -0.968 219 0 0
-0.0459702 0.160783 -0.993 160 0 0
-0.0436831 0.158678 -0.98 182 0 0
-0.0417406 0.157706 -0.974 199 0 0
-0.0399423 0.15722 -0.971 209 0 0
-0.0381148 0.156573 -0.967 222 0 0
-0.0362633 0.155763 -0.962 243 0 0
-0.034573 0.155601 -0.961 249 0 0
-0.0328519 0.155277 -0.959 255 12 0
-0.031189 0.155209 -0.959 255 12 0
-0.0292941 0.153915 -0.951 255 97 0
-0.0276885 0.154077 -0.952 255 85 0
-0.0260247 0.153915 -0.951 255 97 0
-0.0243387 0.153591 -0.949 255 120 0
-0.0226596 0.153267 -0.947 255 139 0
-0.0210095 0.153105 -0.946 255 149 0
-0.0193219 0.15262 -0.943 255 169 0
-0.0176634 0.152296 -0.941 255 185 0
-0.0160459 0.152296 -0.941 255 185 0
-0.0144437 0.152458 -0.942 255 176 0
-0.0128244 0.152458 -0.942 255 176 0
-0.0112052 0.152458 -0.942 255 176 0
-0.00958596 0.152458 -0.942 255 176 0
-0.00795825 0.152296 -0.941 255 185 0
-0.00634073 0.152296 -0.941 255 185 0
-0.0047232 0.152296 -0.941 255 185 0
-0.00310237 0.152134 -0.94 255 195 0
-0.0014834 0.151811 -0.938 255 215 0
0.000129105 0.151973 -0.939 255 205 0
0.00174319 0.151973 -0.939 255 205 0
0.00335371 0.151811 -0.938 255 215 0
0.00497137 0.151973 -0.939 255 205 0
0.00656442 0.151487 -0.936 255 237 0
0.00813842 0.15084 -0.932 229 255 24
0.00973003 0.150678 -0.931 218 255 35
0.0113304 0.150678 -0.931 218 255 35
0.0129446 0.15084 -0.932 229 255 24
0.0145466 0.15084 -0.932 229 255 24
0.016166 0.151001 -0.933 240 255 13
0.0177317 0.150678 -0.931 218 255 35
0.0192905 0.150354 -0.929 191 255 62
0.0209099 0.150516 -0.93 205 255 48
0.0225085 0.150516 -0.93 205 255 48
0.0241331 0.150678 -0.931 218 255 35
0.0257058 0.150516 -0.93 205 255 48
0.027275 0.150354 -0.929 191 255 62
0.0288408 0.150192 -0.928 176 255 77
0.0304688 0.150354 -0.929 191 255 62
0.0320107 0.150096 -0.927 162 255 91
0.0334961 0.14961 -0.924 120 255 133
0.0350851 0.14961 -0.924 120 255 133
0.0366344 0.149448 -0.923 107 255 146
0.0381803 0.149286 -0.922 95 255 158
0.0397658 0.149286 -0.922 95 255 158
0.0413514 0.149286 -0.922 95 255 158
0.0428904 0.149125 -0.921 83 255 170
0.0445225 0.149286 -0.922 95 255 158
0.0460081 0.148963 -0.92 71 255 182
0.0476419 0.149125 -0.921 83 255 170
0.0492258 0.149125 -0.921 83 255 170
0.0508936 0.149371 -0.922 95 255 158
0.0524231 0.149209 -0.921 83 255 170
0.0540079 0.149209 -0.921 83 255 170
0.0558944 0.150019 -0.926 148 255 105
0.0575498 0.150181 -0.927 162 255 91
0.0592087 0.150343 -0.928 176 255 77
0.0607399 0.150181 -0.927 162 255 91
0.0624023 0.150343 -0.928 176 255 77
0.063999 0.150343 -0.928 176 255 77
0.0658387 0.1509 -0.931 218 255 35
0.0675138 0.151062 -0.932 229 255 24
0.0691182 0.151062 -0.932 229 255 24
0.0709503 0.151548 -0.935 255 247 0
0.0727927 0.152034 -0.938 255 215 0
0.0744075 0.152034 -0.938 255 215 0
0.0761843 0.152359 -0.94 255 195 0
0.0777572 0.15227 -0.939 255 205 0
0.0793744 0.15227 -0.939 255 205 0
0.0811642 0.152594 -0.941 255 185 0
0.0827848 0.152594 -0.941 255 185 0
0.0844952 0.152756 -0.942 255 176 0
0.0863005 0.153081 -0.944 255 163 0
0.0880742 0.153338 -0.945 255 156 0
0.0898926 0.153662 -0.947 255 139 0
0.0915246 0.153662 -0.947 255 139 0
0.093255 0.153825 -0.948 255 129 0
0.095089 0.154149 -0.95 255 109 0
0.0970813 0.154715 -0.953 255 73 0
0.0990353 0.155202 -0.956 255 43 0
0.100473 0.154878 -0.954 255 63 0
0.102118 0.154878 -0.954 255 63 0
0.103981 0.155202 -0.956 255 43 0
0.106113 0.155913 -0.96 255 1 0
0.108667 0.157212 -0.968 219 0 0
-0.0477259 0.159234 -0.994 159 0 0
-0.0453684 0.156992 -0.98 182 0 0
-0.0434156 0.156031 -0.974 199 0 0
-0.0416121 0.15555 -0.971 209 0 0
-0.0395958 0.154201 -0.963 238 0 0
-0.0378617 0.153881 -0.961 249 0 0
-0.0362098 0.153881 -0.961 249 0 0
-0.0345579 0.153881 -0.961 249 0 0
-0.0327348 0.15308 -0.956 255 43 0
-0.0310264 0.15276 -0.954 255 63 0
-0.0293557 0.1526 -0.953 255 73 0
-0.0276594 0.152279 -0.951 255 97 0
-0.0259426 0.151799 -0.948 255 129 0
-0.0242874 0.151639 -0.947 255 139 0
-0.0226117 0.151319 -0.945 255 156 0
-0.0209873 0.151319 -0.945 255 156 0
-0.0193629 0.151319 -0.945 255 156 0
-0.0176446 0.150518 -0.94 255 195 0
-0.0160459 0.150678 -0.941 255 185 0
-0.0144284 0.150678 -0.941 255 185 0
-0.0128244 0.150838 -0.942 255 176 0
-0.0111933 0.150678 -0.941 255 185 0
-0.00957578 0.150678 -0.941 255 185 0
-0.00795825 0.150678 -0.941 255 185 0
-0.00632051 0.150198 -0.938 255 215 0
-0.0046981 0.149877 -0.936 255 237 0
-0.00308917 0.149877 -0.936 255 237 0
-0.00147866 0.149717 -0.935 255 247 0
0.000128693 0.149877 -0.936 255 237 0
0.00174134 0.150198 -0.938 255 215 0
0.00335013 0.150038 -0.937 255 226 0
0.00495549 0.149877 -0.936 255 237 0
0.00653637 0.149237 -0.932 229 255 24
0.00812969 0.149077 -0.931 218 255 35
0.00973003 0.149077 -0.931 218 255 35
0.0113304 0.149077 -0.931 218 255 35
0.0129168 0.148917 -0.93 205 255 48
0.0145154 0.148917 -0.93 205 255 48
0.0160967 0.148757 -0.929 191 255 62
0.0176555 0.148436 -0.927 162 255 91
0.0192905 0.148757 -0.929 191 255 62
0.02082 0.148276 -0.926 148 255 105
0.0224843 0.148757 -0.929 191 255 62
0.0241071 0.148917 -0.93 205 255 48
0.0256781 0.148757 -0.929 191 255 62
0.0272163 0.148436 -0.927 162 255 91
0.0287787 0.148276 -0.926 148 255 105
0.0304032 0.148436 -0.927 162 255 91
0.0319277 0.148116 -0.925 134 255 119
0.0334452 0.147796 -0.923 107 255 146
0.0349559 0.147476 -0.921 83 255 170
0.0364994 0.147315 -0.92 71 255 182
0.0380808 0.147315 -0.92 71 255 182
0.0397227 0.14754 -0.921 83 255 170
0.0412169 0.14722 -0.919 57 254 196
0.0427041 0.146899 -0.917 27 255 226
0.0444259 0.14738 -0.92 71 255 182
0.045908 0.14706 -0.918 42 255 211
0.0475385 0.14722 -0.919 57 254 196
0.0492258 0.14754 -0.921 83 255 170
0.0508096 0.14754 -0.921 83 255 170
0.0522228 0.14706 -0.918 42 255 211
0.0539773 0.14754 -0.921 83 255 170
0.0558944 0.148425 -0.926 148 255 105
0.0574877 0.148425 -0.926 148 255 105
0.0590811 0.148425 -0.926 148 255 105
0.0608055 0.148746 -0.928 176 255 77
0.0624023 0.148746 -0.928 176 255 77
0.063999 0.148746 -0.928 176 255 77
0.0655958 0.148746 -0.928 176 255 77
0.0673374 0.149066 -0.93 205 255 48
0.0691182 0.149457 -0.932 229 255 24
0.0707986 0.149617 -0.933 240 255 13
0.0725599 0.149938 -0.935 255 247 0
0.0742488 0.150098 -0.936 255 237 0
0.0759411 0.150259 -0.937 255 226 0
0.0773886 0.149938 -0.935 255 247 0
0.0792517 0.150419 -0.938 255 215 0
0.0810779 0.150812 -0.94 255 195 0
0.0827848 0.150973 -0.941 255 185 0
0.0844055 0.150973 -0.941 255 185 0
0.0860262 0.150973 -0.941 255 185 0
0.0876469 0.150973 -0.941 255 185 0
0.0894573 0.151294 -0.943 255 169 0
0.0913313 0.151709 -0.945 255 156 0
0.0931567 0.15203 -0.947 255 139 0
0.0949889 0.152351 -0.949 255 120 0
0.0966244 0.152351 -0.949 255 120 0
0.0985705 0.152833 -0.952 255 85 0
0.100578 0.153393 -0.955 255 53 0
0.102118 0.153232 -0.954 255 63 0
0.103872 0.153393 -0.955 255 53 0
0.105408 0.153232 -0.954 255 63 0
0.107951 0.154517 -0.962 243 0 0
-0.0493855 0.157366 -0.993 160 0 0
-0.0471017 0.155464 -0.981 181 0 0
-0.0451172 0.154446 -0.975 196 0 0
-0.043263 0.153812 -0.971 209 0 0
-0.0413369 0.152862 -0.965 229 0 0
-0.0394725 0.15207 -0.96 255 1 0
-0.0378617 0.152228 -0.961 249 0 0
-0.0362098 0.152228 -0.961 249 0 0
-0.03445 0.151753 -0.958 255 23 0
-0.0326663 0.151119 -0.954 255 63 0
-0.0309614 0.150802 -0.952 255 85 0
-0.0293249 0.150802 -0.952 255 85 0
-0.0276303 0.150486 -0.95 255 109 0
-0.0258331 0.149535 -0.944 255 163 0
-0.0242105 0.149535 -0.944 255 163 0
-0.0226356 0.149852 -0.946 255 149 0
-0.0209873 0.149694 -0.945 255 156 0
-0.0193322 0.149456 -0.944 255 163 0
-0.0176353 0.148823 -0.94 255 195 0
-0.0160545 0.14914 -0.942 255 176 0
-0.0144361 0.14914 -0.942 255 176 0
-0.0127905 0.148823 -0.94 255 195 0
-0.0111398 0.148348 -0.937 255 226 0
-0.00954021 0.148506 -0.938 255 215 0
-0.00792024 0.148348 -0.937 255 226 0
-0.00629697 0.148031 -0.935 255 247 0
-0.00468559 0.147873 -0.934 251 255 2
-0.00307764 0.147715 -0.933 240 255 13
-0.0014763 0.147873 -0.934 251 255 2
0.000128488 0.148031 -0.935 255 247 0
0.00173485 0.148031 -0.935 255 247 0
0.00334122 0.148031 -0.935 255 247 0
0.004937 0.147715 -0.933 240 255 13
0.0065189 0.14724 -0.93 205 255 48
0.00811667 0.14724 -0.93 205 255 48
0.00971445 0.14724 -0.93 205 255 48
0.0113122 0.14724 -0.93 205 255 48
0.0128683 0.146765 -0.927 162 255 91
0.0144922 0.147081 -0.929 191 255 62
0.0160709 0.146923 -0.928 176 255 77
0.0176652 0.146923 -0.928 176 255 77
0.0192803 0.147081 -0.929 191 255 62
0.0208425 0.146842 -0.927 162 255 91
0.0223875 0.146526 -0.925 134 255 119
0.0239257 0.146209 -0.923 107 255 146
0.0255123 0.146209 -0.923 107 255 146
0.0270989 0.146209 -0.923 107 255 146
0.0286233 0.145892 -0.921 83 255 170
0.030272 0.146209 -0.923 107 255 146
0.0317896 0.145892 -0.921 83 255 170
0.0333727 0.145892 -0.921 83 255 170
0.0349938 0.14605 -0.922 95 255 158
0.0364994 0.145733 -0.92 71 255 182
0.037998 0.145417 -0.918 42 255 211
0.0396622 0.145733 -0.92 71 255 182
0.0411988 0.145575 -0.919 57 254 196
0.0425923 0.144941 -0.915 0 254 255
0.0442811 0.145322 -0.917 27 255 226
0.045858 0.145322 -0.917 27 255 226
0.0474867 0.14548 -0.918 42 255 211
0.0492258 0.145956 -0.921 83 255 170
0.0508648 0.146114 -0.922 95 255 158
0.0523366 0.145797 -0.92 71 255 182
0.0539773 0.145956 -0.921 83 255 170
0.0557421 0.146431 -0.924 120 255 133
0.0573932 0.14659 -0.925 134 255 119
0.0589839 0.14659 -0.925 134 255 119
0.0606744 0.146831 -0.926 148 255 105
0.0622678 0.146831 -0.926 148 255 105
0.0639301 0.14699 -0.927 162 255 91
0.0655958 0.147148 -0.928 176 255 77
0.0671926 0.147148 -0.928 176 255 77
0.0688635 0.147307 -0.929 191 255 62
0.0706896 0.147783 -0.932 229 255 24
0.0724047 0.148011 -0.933 240 255 13
0.0740108 0.148011 -0.933 240 255 13
0.075617 0.148011 -0.933 240 255 13
0.0773886 0.148328 -0.935 255 247 0
0.0791672 0.148645 -0.937 255 226 0
0.0809526 0.148962 -0.939 255 205 0
0.082657 0.149121 -0.94 255 195 0
0.0844055 0.149352 -0.941 255 185 0
0.0859348 0.149193 -0.94 255 195 0
0.0873675 0.148875 -0.938 255 215 0
0.0892676 0.149352 -0.941 255 185 0
0.0910815 0.149669 -0.943 255 169 0
0.0929599 0.15008 -0.945 255 156 0
0.0948888 0.150556 -0.948 255 129 0
0.0965226 0.150556 -0.948 255 129 0
0.0982599 0.150715 -0.949 255 120 0
0.100106 0.151032 -0.951 255 97 0
0.102066 0.151509 -0.954 255 63 0
0.103763 0.151586 -0.954 255 63 0
0.105518 0.151745 -0.955 255 53 0
0.107277 0.151904 -0.956 255 43 0
0.108128 0.150792 -0.949 255 120 0
0.111427 0.153077 -0.963 238 0 0
-0.0511737 0.155903 -0.995 158 0 0
-0.0487674 0.153709 -0.981 181 0 0
-0.0468411 0.152926 -0.976 193 0 0
-0.0448858 0.151986 -0.97 212 0 0
-0.0431739 0.151829 -0.969 216 0 0
-0.0411655 0.150576 -0.961 249 0 0
-0.0395547 0.150732 -0.962 243 0 0
-0.0377829 0.150262 -0.959 255 12 0
-0.0359837 0.149635 -0.955 255 53 0
-0.0343781 0.149792 -0.956 255 43 0
-0.0326663 0.149479 -0.954 255 63 0
-0.0309939 0.149322 -0.953 255 73 0
-0.0292171 0.148617 -0.949 255 120 0
-0.0274123 0.147677 -0.943 255 169 0
-0.0257922 0.147677 -0.943 255 169 0
-0.0242233 0.14799 -0.945 255 156 0
-0.0225998 0.14799 -0.945 255 156 0
-0.0209096 0.147521 -0.942 255 176 0
-0.0192503 0.147207 -0.94 255 195 0
-0.0176728 0.147521 -0.942 255 176 0
-0.0159522 0.146581 -0.936 255 237 0
-0.0143594 0.146738 -0.937 255 226 0
-0.0127632 0.146894 -0.938 255 215 0
-0.0111398 0.146738 -0.937 255 226 0
-0.00953004 0.146738 -0.937 255 226 0
-0.00791179 0.146581 -0.936 255 237 0
-0.0063037 0.146581 -0.936 255 237 0
-0.00468559 0.146268 -0.934 251 255 2
-0.00308094 0.146268 -0.934 251 255 2
-0.0014763 0.146268 -0.934 251 255 2
0.00012835 0.146268 -0.934 251 255 2
0.00173114 0.146111 -0.933 240 255 13
0.00333407 0.146111 -0.933 240 255 13
0.004937 0.146111 -0.933 240 255 13
0.00653292 0.145955 -0.932 229 255 24
0.00809049 0.145172 -0.927 162 255 91
0.00967266 0.145015 -0.926 148 255 105
0.0112636 0.145015 -0.926 148 255 105
0.0128683 0.145172 -0.927 162 255 91
0.0144298 0.144858 -0.925 134 255 119
0.0160016 0.144702 -0.924 120 255 133
0.0176652 0.145328 -0.928 176 255 77
0.0192803 0.145485 -0.929 191 255 62
0.0208764 0.145485 -0.929 191 255 62
0.0223273 0.144545 -0.923 107 255 146
0.0238871 0.144389 -0.922 95 255 158
0.0254436 0.144232 -0.921 83 255 170
0.0269965 0.144075 -0.92 71 255 182
0.0285771 0.144075 -0.92 71 255 182
0.0302392 0.144465 -0.922 95 255 158
0.0317551 0.144151 -0.92 71 255 182
0.0333365 0.144151 -0.92 71 255 182
0.0349938 0.144465 -0.922 95 255 158
0.036539 0.144308 -0.921 83 255 170
0.0380394 0.143995 -0.919 57 254 196
0.0397053 0.144308 -0.921 83 255 170
0.0411988 0.143995 -0.919 57 254 196
0.0426389 0.143525 -0.916 12 255 241
0.0441652 0.143368 -0.915 0 254 255
0.045738 0.143368 -0.915 0 254 255
0.0473625 0.143525 -0.916 12 255 241
0.0491189 0.144058 -0.919 57 254 196
0.0506441 0.143901 -0.918 42 255 211
0.0522228 0.143901 -0.918 42 255 211
0.0539187 0.144215 -0.92 71 255 182
0.0555611 0.144371 -0.921 83 255 170
0.057207 0.144528 -0.922 95 255 158
0.0588563 0.144685 -0.923 107 255 146
0.0604436 0.144685 -0.923 107 255 146
0.0620309 0.144685 -0.923 107 255 146
0.0637921 0.14508 -0.925 134 255 119
0.0654545 0.145237 -0.926 148 255 105
0.0670478 0.145237 -0.926 148 255 105
0.0687894 0.145551 -0.928 176 255 77
0.0706896 0.146178 -0.932 229 255 24
0.0722932 0.146178 -0.932 229 255 24
0.0738176 0.146022 -0.931 218 255 35
0.0754549 0.14609 -0.931 218 255 35
0.0771403 0.146247 -0.932 229 255 24
0.0791672 0.147031 -0.937 255 226 0
0.0808664 0.147188 -0.938 255 215 0
0.0824812 0.147188 -0.938 255 215 0
0.0840959 0.147188 -0.938 255 215 0
0.0858434 0.147416 -0.939 255 205 0
0.0874606 0.147416 -0.939 255 205 0
0.0892676 0.14773 -0.941 255 185 0
0.0907917 0.147573 -0.94 255 195 0
0.0924107 0.147573 -0.94 255 195 0
0.0944298 0.148201 -0.944 255 163 0
0.0965226 0.148922 -0.948 255 129 0
0.0981563 0.148922 -0.948 255 129 0
0.100001 0.149236 -0.95 255 109 0
0.101638 0.149236 -0.95 255 109 0
0.103384 0.149393 -0.951 255 97 0
0.105187 0.149627 -0.952 255 85 0
0.107165 0.150098 -0.955 255 53 0
0.109268 0.150727 -0.959 255 12 0
0.11254 0.152927 -0.973 203 0 0
-0.0529372 0.154347 -0.996 156 0 0
-0.0504022 0.151867 -0.98 182 0 0
-0.0485188 0.151248 -0.976 193 0 0
-0.0465052 0.150163 -0.969 216 0 0
-0.0448395 0.150163 -0.969 216 0 0
-0.0427729 0.148768 -0.96 255 1 0
-0.0411227 0.148768 -0.96 255 1 0
-0.0395136 0.148923 -0.961 249 0 0
-0.0376253 0.147993 -0.955 255 53 0
-0.0358141 0.147296 -0.951 255 97 0
-0.0342521 0.147605 -0.953 255 73 0
-0.032649 0.14776 -0.954 255 63 0
-0.030815 0.146831 -0.948 255 129 0
-0.0290939 0.146366 -0.945 255 156 0
-0.0274413 0.146211 -0.944 255 163 0
-0.0257922 0.146057 -0.943 255 169 0
-0.024172 0.146057 -0.943 255 169 0
-0.0225519 0.146057 -0.943 255 169 0
-0.0208208 0.145282 -0.938 255 215 0
-0.0192708 0.145747 -0.941 255 185 0
-0.0175603 0.144972 -0.936 255 237 0
-0.0159522 0.144972 -0.936 255 237 0
-0.0143441 0.144972 -0.936 255 237 0
-0.0127224 0.144817 -0.935 255 247 0
-0.011128 0.144972 -0.936 255 237 0
-0.00951987 0.144972 -0.936 255 237 0
-0.00790333 0.144817 -0.935 255 247 0
-0.00631044 0.145127 -0.937 255 226 0
-0.00469562 0.144972 -0.936 255 237 0
-0.00308424 0.144817 -0.935 255 247 0
-0.0014763 0.144663 -0.934 251 255 2
0.000128075 0.144353 -0.932 229 255 24
0.00173114 0.144508 -0.933 240 255 13
0.0033305 0.144353 -0.932 229 255 24
0.00494229 0.144663 -0.934 251 255 2
0.00653292 0.144353 -0.932 229 255 24
0.00809049 0.143578 -0.927 162 255 91
0.00966222 0.143269 -0.925 134 255 119
0.0112636 0.143423 -0.926 148 255 105
0.0128545 0.143423 -0.926 148 255 105
0.0144298 0.143269 -0.925 134 255 119
0.016019 0.143269 -0.925 134 255 119
0.0176272 0.143423 -0.926 148 255 105
0.0192596 0.143733 -0.928 176 255 77
0.0208539 0.143733 -0.928 176 255 77
0.0223273 0.142959 -0.923 107 255 146
0.0238612 0.142649 -0.921 83 255 170
0.0254712 0.142804 -0.922 95 255 158
0.0269965 0.142494 -0.92 71 255 182
0.0285771 0.142494 -0.92 71 255 182
0.0301905 0.142649 -0.921 83 255 170
0.0317728 0.142649 -0.921 83 255 170
0.0333189 0.142494 -0.92 71 255 182
0.0348995 0.142494 -0.92 71 255 182
0.0364994 0.142569 -0.92 71 255 182
0.0380808 0.142569 -0.92 71 255 182
0.0396191 0.142415 -0.919 57 254 196
0.0411092 0.142105 -0.917 27 255 226
0.0426854 0.142105 -0.917 27 255 226
0.0441652 0.141795 -0.915 0 254 255
0.045638 0.141485 -0.913 0 225 255
0.0473625 0.14195 -0.916 12 255 241
0.0488302 0.14164 -0.914 0 239 255
0.0504014 0.14164 -0.914 0 239 255
0.0519725 0.14164 -0.914 0 239 255
0.0538015 0.142322 -0.918 42 255 211
0.0555008 0.142632 -0.92 71 255 182
0.0570209 0.142477 -0.919 57 254 196
0.0587288 0.142787 -0.921 83 255 170
0.0603781 0.142942 -0.922 95 255 158
0.0618965 0.142787 -0.921 83 255 170
0.0636871 0.143252 -0.924 120 255 133
0.0652055 0.143097 -0.923 107 255 146
0.066903 0.143333 -0.924 120 255 133
0.0686411 0.143643 -0.926 148 255 105
0.070462 0.144109 -0.929 191 255 62
0.0722157 0.144419 -0.931 218 255 35
0.0737383 0.144264 -0.93 205 255 48
0.0752575 0.144109 -0.929 191 255 62
0.076856 0.144109 -0.929 191 255 62
0.0786603 0.144487 -0.931 218 255 35
0.0805216 0.144952 -0.934 251 255 2
0.0822174 0.145107 -0.935 255 247 0
0.0839166 0.145263 -0.936 255 237 0
0.0854365 0.145107 -0.935 255 247 0
0.0871392 0.145263 -0.936 255 237 0
0.0891727 0.145954 -0.94 255 195 0
0.0906951 0.145798 -0.939 255 205 0
0.0921157 0.145488 -0.937 255 226 0
0.0940296 0.145954 -0.94 255 195 0
0.0959539 0.14642 -0.943 255 169 0
0.0980528 0.147132 -0.947 255 139 0
0.0998954 0.147443 -0.949 255 120 0
0.101638 0.147598 -0.95 255 109 0
0.103166 0.147443 -0.949 255 120 0
0.105133 0.147909 -0.952 255 85 0
0.106828 0.147985 -0.952 255 85 0
0.108584 0.14814 -0.953 255 73 0
0.112078 0.150627 -0.969 216 0 0
-0.0545395 0.152328 -0.994 159 0 0
-0.0521399 0.150336 -0.981 181 0 0
-0.0501451 0.149416 -0.975 196 0 0
-0.0480714 0.14819 -0.967 222 0 0
-0.0463612 0.148037 -0.966 225 0 0
-0.0446544 0.147884 -0.965 229 0 0
-0.0427948 0.147193 -0.961 249 0 0
-0.041101 0.14704 -0.96 255 1 0
-0.0393284 0.14658 -0.957 255 33 0
-0.0374086 0.145508 -0.95 255 109 0
-0.0357764 0.145508 -0.95 255 109 0
-0.0341443 0.145508 -0.95 255 109 0
-0.0324779 0.145355 -0.949 255 120 0
-0.0307175 0.144742 -0.945 255 156 0
-0.0290939 0.144742 -0.945 255 156 0
-0.0273541 0.144129 -0.941 255 185 0
-0.0258195 0.144589 -0.944 255 163 0
-0.0241977 0.144589 -0.944 255 163 0
-0.022528 0.144283 -0.942 255 176 0
-0.0208652 0.143976 -0.94 255 195 0
-0.0191684 0.143364 -0.936 255 237 0
-0.0175603 0.143364 -0.936 255 237 0
-0.0159863 0.14367 -0.938 255 215 0
-0.0143135 0.143057 -0.934 251 255 2
-0.0126888 0.142832 -0.933 240 255 13
-0.0111104 0.143138 -0.935 255 247 0
-0.00949471 0.142985 -0.934 251 255 2
-0.00789087 0.142985 -0.934 251 255 2
-0.00629377 0.143138 -0.935 255 247 0
-0.0046782 0.142832 -0.933 240 255 13
-0.00306619 0.142372 -0.93 205 255 48
-0.00146607 0.142066 -0.928 176 255 77
0.000127461 0.142066 -0.928 176 255 77
0.00172284 0.142219 -0.929 191 255 62
0.00331095 0.141913 -0.927 162 255 91
0.00490276 0.141913 -0.927 162 255 91
0.00649457 0.141913 -0.927 162 255 91
0.00807766 0.14176 -0.926 148 255 105
0.00966775 0.14176 -0.926 148 255 105
0.0112335 0.141454 -0.924 120 255 133
0.0128202 0.141454 -0.924 120 255 133
0.0144142 0.141526 -0.924 120 255 133
0.016019 0.141679 -0.925 134 255 119
0.0176081 0.141679 -0.925 134 255 119
0.0191766 0.141526 -0.924 120 255 133
0.0207416 0.141373 -0.923 107 255 146
0.0223273 0.141373 -0.923 107 255 146
0.0238612 0.141066 -0.921 83 255 170
0.0253883 0.14076 -0.919 57 254 196
0.0270259 0.141066 -0.921 83 255 170
0.0285771 0.140913 -0.92 71 255 182
0.0301577 0.140913 -0.92 71 255 182
0.0317383 0.140913 -0.92 71 255 182
0.0333189 0.140913 -0.92 71 255 182
0.0348995 0.140913 -0.92 71 255 182
0.0364404 0.14076 -0.919 57 254 196
0.0378952 0.1403 -0.916 12 255 241
0.039512 0.140454 -0.917 27 255 226
0.040953 0.139994 -0.914 0 239 255
0.0425458 0.140068 -0.914 0 239 255
0.0439721 0.139608 -0.911 0 200 255
0.045638 0.139915 -0.913 0 225 255
0.0472074 0.139915 -0.913 0 225 255
0.0488837 0.140221 -0.915 0 254 255
0.0504014 0.140068 -0.914 0 239 255
0.0520293 0.140221 -0.915 0 254 255
0.0537193 0.140528 -0.917 27 255 226
0.0554765 0.140987 -0.92 71 255 182
0.0568719 0.140528 -0.917 27 255 226
0.05841 0.140436 -0.916 12 255 241
0.0600507 0.140589 -0.917 27 255 226
0.0616949 0.140743 -0.918 42 255 211
0.0636182 0.141509 -0.923 107 255 146
0.0651348 0.141356 -0.922 95 255 158
0.0667204 0.141356 -0.922 95 255 158
0.0684541 0.141662 -0.924 120 255 133
0.0702345 0.142049 -0.926 148 255 105
0.0719829 0.142356 -0.928 176 255 77
0.0737383 0.142663 -0.93 205 255 48
0.0752575 0.14251 -0.929 191 255 62
0.0766906 0.142203 -0.927 162 255 91
0.0783701 0.142356 -0.928 176 255 77
0.0803115 0.14297 -0.932 229 255 24
0.0819536 0.143037 -0.932 229 255 24
0.0836477 0.14319 -0.933 240 255 13
0.0853452 0.143344 -0.934 251 255 2
0.0871392 0.143651 -0.936 255 237 0
0.089035 0.144111 -0.939 255 205 0
0.0905549 0.143958 -0.938 255 215 0
0.0922141 0.144027 -0.938 255 215 0
0.0940296 0.144334 -0.94 255 195 0
0.0956486 0.144334 -0.94 255 195 0
0.0974745 0.144641 -0.942 255 176 0
0.0996229 0.145409 -0.947 255 139 0
0.101531 0.145807 -0.949 255 120 0
0.103275 0.14596 -0.95 255 109 0
0.105023 0.146114 -0.951 255 97 0
0.106213 0.145499 -0.947 255 139 0
0.107731 0.145346 -0.946 255 149 0
0.110574 0.146957 -0.956 255 43 0
0.113983 0.149263 -0.971 209 0 0
0.143113 0.153573 -0.997 155 0 0
0.145272 0.154035 -1 152 0 0
0.14406 0.150954 -0.98 182 0 0
0.144117 0.14926 -0.969 216 0 0
0.145703 0.14917 -0.968 219 0 0
-0.056135 0.150315 -0.992 161 0 0
-0.0538262 0.148649 -0.981 181 0 0
-0.0518742 0.147891 -0.976 193 0 0
-0.0498365 0.14683 -0.969 216 0 0
-0.0480957 0.146601 -0.968 219 0 0
-0.0462887 0.146147 -0.965 229 0 0
-0.0444458 0.145541 -0.961 249 0 0
-0.0427057 0.145238 -0.959 255 12 0
-0.0410581 0.145238 -0.959 255 12 0
-0.039164 0.14433 -0.953 255 73 0
-0.0373298 0.143572 -0.948 255 129 0
-0.0357388 0.143724 -0.949 255 120 0
-0.0341083 0.143724 -0.949 255 120 0
-0.0323753 0.143269 -0.946 255 149 0
-0.0307175 0.143118 -0.945 255 156 0
-0.0289708 0.142512 -0.941 255 185 0
-0.0274123 0.142815 -0.943 255 169 0
-0.0258611 0.143197 -0.946 255 149 0
-0.0241598 0.142743 -0.943 255 169 0
-0.0224449 0.142137 -0.939 255 205 0
-0.020899 0.142591 -0.942 255 176 0
-0.0191586 0.141683 -0.936 255 237 0
-0.0175701 0.141834 -0.937 255 226 0
-0.01591 0.14138 -0.934 251 255 2
-0.0142909 0.141229 -0.933 240 255 13
-0.0127024 0.14138 -0.934 251 255 2
-0.0111104 0.141532 -0.935 255 247 0
-0.00949471 0.14138 -0.934 251 255 2
-0.00789087 0.14138 -0.934 251 255 2
-0.0063005 0.141683 -0.936 255 237 0
-0.00468321 0.14138 -0.934 251 255 2
-0.00306619 0.140775 -0.93 205 255 48
-0.00146607 0.140472 -0.928 176 255 77
0.000127461 0.140472 -0.928 176 255 77
0.00172099 0.140472 -0.928 176 255 77
0.00331452 0.140472 -0.928 176 255 77
0.00490276 0.140321 -0.927 162 255 91
0.00648756 0.140169 -0.926 148 255 105
0.00808638 0.140321 -0.927 162 255 91
0.00965731 0.140018 -0.925 134 255 119
0.0112335 0.139867 -0.924 120 255 133
0.0128202 0.139867 -0.924 120 255 133
0.0143913 0.139715 -0.923 107 255 146
0.0159935 0.139867 -0.924 120 255 133
0.0175231 0.139413 -0.921 83 255 170
0.0190839 0.139261 -0.92 71 255 182
0.0206637 0.139261 -0.92 71 255 182
0.0222676 0.139413 -0.921 83 255 170
0.0237714 0.138958 -0.918 42 255 211
0.0253607 0.139029 -0.918 42 255 211
0.0269378 0.139029 -0.918 42 255 211
0.0284529 0.138726 -0.916 12 255 241
0.0299938 0.138575 -0.915 0 254 255
0.0316003 0.138726 -0.916 12 255 241
0.0331378 0.138575 -0.915 0 254 255
0.0347478 0.138726 -0.916 12 255 241
0.0362818 0.138575 -0.915 0 254 255
0.0378125 0.138423 -0.914 0 239 255
0.0394258 0.138575 -0.915 0 254 255
0.0409082 0.138272 -0.913 0 225 255
0.0425233 0.138423 -0.914 0 239 255
0.0440454 0.138272 -0.913 0 225 255
0.045564 0.13812 -0.912 0 212 255
0.047104 0.138042 -0.911 0 200 255
0.0487768 0.138345 -0.913 0 225 255
0.0504565 0.138648 -0.915 0 254 255
0.0519725 0.138496 -0.914 0 239 255
0.0536022 0.138648 -0.915 0 254 255
0.0553559 0.139102 -0.918 42 255 211
0.0568099 0.138799 -0.916 12 255 241
0.0582569 0.138496 -0.914 0 239 255
0.0598935 0.138648 -0.915 0 254 255
0.0617621 0.139315 -0.919 57 254 196
0.0635493 0.13977 -0.922 95 255 158
0.0650642 0.139618 -0.921 83 255 170
0.066648 0.139618 -0.921 83 255 170
0.06838 0.139921 -0.923 107 255 146
0.0701189 0.140224 -0.925 134 255 119
0.0717872 0.140376 -0.926 148 255 105
0.0735797 0.140759 -0.928 176 255 77
0.0751765 0.140759 -0.928 176 255 77
0.0766078 0.140456 -0.926 148 255 105
0.0784545 0.140911 -0.929 191 255 62
0.0801392 0.141062 -0.93 205 255 48
0.0817394 0.141062 -0.93 205 255 48
0.0835189 0.141366 -0.932 229 255 24
0.0853452 0.141735 -0.934 251 255 2
0.0870461 0.141887 -0.935 255 247 0
0.0888453 0.142191 -0.937 255 226 0
0.0904584 0.142191 -0.937 255 226 0
0.0921697 0.142342 -0.938 255 215 0
0.0938296 0.142411 -0.938 255 215 0
0.0954451 0.142411 -0.938 255 215 0
0.0970606 0.142411 -0.938 255 215 0
0.0990969 0.143018 -0.942 255 176 0
0.101361 0.143929 -0.948 255 129 0
0.103275 0.144322 -0.95 255 109 0
0.104802 0.144171 -0.949 255 120 0
0.106213 0.143867 -0.947 255 139 0
0.107959 0.144019 -0.948 255 129 0
0.109824 0.144322 -0.95 255 109 0
0.11234 0.14546 -0.957 255 33 0
0.139327 0.149633 -0.983 178 0 0
0.139877 0.148415 -0.975 196 0 0
0.14164 0.148499 -0.975 196 0 0
0.143031 0.148194 -0.973 203 0 0
0.144266 0.147737 -0.97 212 0 0
0.145039 0.146824 -0.964 232 0 0
0.146615 0.146735 -0.963 238 0 0
0.149512 0.147954 -0.971 209 0 0
0.151035 0.147801 -0.97 212 0 0
0.152958 0.148041 -0.971 209 0 0
0.154956 0.148345 -0.973 203 0 0
-0.0579568 0.148909 -0.994 159 0 0
-0.0555691 0.147112 -0.982 180 0 0
-0.0535236 0.146136 -0.976 193 0 0
-0.0515812 0.145387 -0.971 209 0 0
-0.0497074 0.144788 -0.967 222 0 0
-0.0479466 0.144488 -0.965 229 0 0
-0.0460489 0.14374 -0.96 255 1 0
-0.0443533 0.14359 -0.959 255 12 0
-0.0426612 0.14344 -0.958 255 23 0
-0.0409725 0.143291 -0.957 255 33 0
-0.0390407 0.142243 -0.95 255 109 0
-0.0374479 0.142392 -0.951 255 97 0
-0.0357764 0.142243 -0.95 255 109 0
-0.0341083 0.142093 -0.949 255 120 0
-0.0322904 0.141272 -0.944 255 163 0
-0.030507 0.140524 -0.939 255 205 0
-0.0289253 0.140674 -0.94 255 195 0
-0.0273983 0.141123 -0.943 255 169 0
-0.0258064 0.141272 -0.944 255 163 0
-0.0239804 0.140075 -0.936 255 237 0
-0.0225166 0.140973 -0.942 255 176 0
-0.0207659 0.140075 -0.936 255 237 0
-0.0191996 0.140375 -0.938 255 215 0
-0.0174764 0.139477 -0.932 229 255 24
-0.0159271 0.139926 -0.935 255 247 0
-0.0142603 0.139327 -0.931 218 255 35
-0.0126752 0.139477 -0.932 229 255 24
-0.0110629 0.139327 -0.931 218 255 35
-0.00947438 0.139477 -0.932 229 255 24
-0.00786553 0.139327 -0.931 218 255 35
-0.00626012 0.139177 -0.93 205 255 48
-0.00465814 0.139028 -0.929 191 255 62
-0.00306949 0.139327 -0.931 218 255 35
-0.00147081 0.139327 -0.931 218 255 35
0.000126912 0.138279 -0.924 120 255 133
0.00171914 0.138728 -0.927 162 255 91
0.0033038 0.138429 -0.925 134 255 119
0.00488689 0.138279 -0.924 120 255 133
0.00648056 0.138429 -0.925 134 255 119
0.00805149 0.13813 -0.923 107 255 146
0.00962599 0.13798 -0.922 95 255 158
0.0112092 0.13798 -0.922 95 255 158
0.0127924 0.13798 -0.922 95 255 158
0.0143601 0.13783 -0.921 83 255 170
0.0159589 0.13798 -0.922 95 255 158
0.0175231 0.13783 -0.921 83 255 170
0.0191046 0.13783 -0.921 83 255 170
0.0205289 0.136783 -0.914 0 239 255
0.0221709 0.137232 -0.917 27 255 226
0.0237456 0.137232 -0.917 27 255 226
0.025265 0.136933 -0.915 0 254 255
0.0268655 0.137082 -0.916 12 255 241
0.0284695 0.137232 -0.917 27 255 226
0.0300441 0.137232 -0.917 27 255 226
0.0315843 0.137082 -0.916 12 255 241
0.033174 0.137152 -0.916 12 255 241
0.0347098 0.137002 -0.915 0 254 255
0.0363215 0.137152 -0.916 12 255 241
0.0378952 0.137152 -0.916 12 255 241
0.0393397 0.136703 -0.913 0 225 255
0.0409082 0.136703 -0.913 0 225 255
0.0424303 0.136553 -0.912 0 212 255
0.0439006 0.136253 -0.91 0 188 255
0.045514 0.136403 -0.911 0 200 255
0.0471825 0.136703 -0.913 0 225 255
0.0486443 0.136403 -0.911 0 200 255
0.0502645 0.136553 -0.912 0 212 255
0.0519725 0.136925 -0.914 0 239 255
0.0535436 0.136925 -0.914 0 239 255
0.0551147 0.136925 -0.914 0 239 255
0.0566858 0.136925 -0.914 0 239 255
0.0582569 0.136925 -0.914 0 239 255
0.0600899 0.137524 -0.918 42 255 211
0.0618694 0.137973 -0.921 83 255 170
0.0635214 0.138123 -0.922 95 255 158
0.0650642 0.138034 -0.921 83 255 170
0.066648 0.138034 -0.921 83 255 170
0.06838 0.138333 -0.923 107 255 146
0.0701189 0.138633 -0.925 134 255 119
0.0717872 0.138783 -0.926 148 255 105
0.0734588 0.138933 -0.927 162 255 91
0.074972 0.138783 -0.926 148 255 105
0.0766078 0.138862 -0.926 148 255 105
0.0782856 0.139012 -0.927 162 255 91
0.0798807 0.139012 -0.927 162 255 91
0.0815636 0.139162 -0.928 176 255 77
0.0831604 0.139162 -0.928 176 255 77
0.0851225 0.139761 -0.932 229 255 24
0.0868599 0.139977 -0.933 240 255 13
0.0887505 0.140427 -0.936 255 237 0
0.0904584 0.140577 -0.937 255 226 0
0.0920714 0.140577 -0.937 255 226 0
0.0936844 0.140577 -0.937 255 226 0
0.0952974 0.140577 -0.937 255 226 0
0.0969571 0.140645 -0.937 255 226 0
0.0988865 0.141095 -0.94 255 195 0
0.101147 0.141996 -0.946 255 149 0
0.102994 0.142296 -0.948 255 129 0
0.104626 0.142296 -0.948 255 129 0
0.106101 0.142084 -0.946 255 149 0
0.107389 0.141633 -0.943 255 169 0
0.109361 0.142084 -0.946 255 149 0
0.112282 0.143736 -0.957 255 33 0
