ply
format ascii 1.0
element vertex 1247
property float32 x
property float32 y
property float32 z
property uchar diffuse_red
property uchar diffuse_green
property uchar diffuse_blue
end_header
0.127776 0.042749 -0.885 0 199 255
0.129361 0.0427707 -0.885 0 199 255
0.130733 0.0427224 -0.884 0 189 254
0.132103 0.0426741 -0.883 0 179 255
0.133771 0.0427224 -0.884 0 189 254
0.135974 0.0429384 -0.888 0 239 255
0.13781 0.0430351 -0.89 15 255 238
0.13887 0.04289 -0.887 0 223 255
0.140298 0.0428604 -0.886 0 209 255
0.141982 0.0429088 -0.887 0 223 255
0.143507 0.0429088 -0.887 0 223 255
0.145359 0.0430056 -0.889 0 255 254
0.147302 0.0431267 -0.891 31 255 222
0.148501 0.0430299 -0.889 0 255 254
0.150199 0.0430783 -0.89 15 255 238
0.152143 0.0431954 -0.892 46 255 207
0.153506 0.0431469 -0.891 31 255 222
0.154866 0.0430985 -0.89 15 255 238
0.156649 0.0431677 -0.891 31 255 222
0.158362 0.0432162 -0.892 46 255 207
0.159898 0.0432162 -0.892 46 255 207
0.160991 0.0430976 -0.889 0 255 254
0.16234 0.0430491 -0.888 0 239 255
0.164424 0.0431945 -0.891 31 255 222
0.165486 0.0430711 -0.888 0 239 255
0.167393 0.0431681 -0.89 15 255 238
0.16703 0.0426831 -0.88 0 153 254
0.168613 0.0426999 -0.88 0 153 254
0.171484 0.0430395 -0.887 0 223 255
-0.0600505 0.0466538 -1.006 134 0 0
-0.0580989 0.0464683 -1.002 135 0 0
-0.0558498 0.0460264 -0.993 140 0 0
-0.0537715 0.0457019 -0.986 144 0 0
-0.0512417 0.0449603 -0.97 166 0 0
-0.0487666 0.0442187 -0.954 197 0 0
-0.0464944 0.0436161 -0.941 240 0 0
-0.0446482 0.0433844 -0.936 255 11 0
-0.042865 0.043199 -0.932 255 30 0
-0.0409627 0.0428745 -0.925 255 73 0
-0.0396804 0.043199 -0.932 255 30 0
-0.0379246 0.0430136 -0.928 255 54 0
-0.0361825 0.0428282 -0.924 255 80 0
-0.0344003 0.0425762 -0.919 255 114 0
-0.0328309 0.0425762 -0.919 255 114 0
-0.0312616 0.0425762 -0.919 255 114 0
-0.0296599 0.0425299 -0.918 255 123 0
-0.0280311 0.0424372 -0.916 255 140 0
-0.0264668 0.0424372 -0.916 255 140 0
-0.0247123 0.0421129 -0.909 255 223 0
-0.0231091 0.0420202 -0.907 255 244 0
-0.0215602 0.0420202 -0.907 255 244 0
-0.0200113 0.0420202 -0.907 255 244 0
-0.0183811 0.0418349 -0.903 212 255 41
-0.0167644 0.0416496 -0.899 145 255 108
-0.0151615 0.0414643 -0.895 88 255 165
-0.0136483 0.0415106 -0.896 101 255 152
-0.0120912 0.041418 -0.894 75 255 178
-0.0106354 0.0416959 -0.9 162 255 91
-0.00908842 0.0416496 -0.899 145 255 108
-0.00754481 0.0416033 -0.898 129 255 124
-0.00600463 0.041557 -0.897 114 255 139
-0.00445788 0.041418 -0.894 75 255 178
-0.00292466 0.0413253 -0.892 46 255 207
-0.00140612 0.0414643 -0.895 88 255 165
0.000122249 0.0414643 -0.895 88 255 165
0.00165062 0.0414643 -0.895 88 255 165
0.00317544 0.041418 -0.894 75 255 178
0.0047021 0.041418 -0.894 75 255 178
0.00622877 0.041418 -0.894 75 255 178
0.00775543 0.041418 -0.894 75 255 178
0.00925095 0.041279 -0.891 31 255 222
0.0107725 0.041279 -0.891 31 255 222
0.0123216 0.0413716 -0.893 61 255 192
0.0138621 0.041418 -0.894 75 255 178
0.0153888 0.041418 -0.894 75 255 178
0.0169154 0.041418 -0.894 75 255 178
0.0184421 0.041418 -0.894 75 255 178
0.0199464 0.0413716 -0.893 61 255 192
0.0214233 0.041279 -0.891 31 255 222
0.0229191 0.0412326 -0.89 15 255 238
0.0244114 0.0411863 -0.889 0 255 254
0.0259296 0.0411863 -0.889 0 255 254
0.0274477 0.0411863 -0.889 0 255 254
0.0289984 0.0412326 -0.89 15 255 238
0.0305182 0.0412326 -0.89 15 255 238
0.0320381 0.0412326 -0.89 15 255 238
0.0334825 0.04114 -0.888 0 239 255
0.0350944 0.0412522 -0.89 15 255 238
0.0366561 0.0412986 -0.891 31 255 222
0.0381783 0.0412986 -0.891 31 255 222
0.0397006 0.0412986 -0.891 31 255 222
0.0412229 0.0412986 -0.891 31 255 222
0.0426972 0.0412522 -0.89 15 255 238
0.0442177 0.0412522 -0.89 15 255 238
0.0457897 0.0412986 -0.891 31 255 222
0.047365 0.0413449 -0.892 46 255 207
0.048889 0.0413449 -0.892 46 255 207
0.0504695 0.0413913 -0.893 61 255 192
0.0519064 0.0413206 -0.891 31 255 222
0.0534295 0.0413206 -0.891 31 255 222
0.0550759 0.0414134 -0.893 61 255 192
0.0567926 0.0415525 -0.896 101 255 152
0.0581289 0.0414134 -0.893 61 255 192
0.059789 0.0415061 -0.895 88 255 165
0.0613189 0.0415061 -0.895 88 255 165
0.0629191 0.0415525 -0.896 101 255 152
0.0644814 0.0415723 -0.896 101 255 152
0.0660138 0.0415723 -0.896 101 255 152
0.0674707 0.0415259 -0.895 88 255 165
0.0691556 0.0416187 -0.897 114 255 139
0.0710049 0.0418043 -0.901 178 255 75
0.0725458 0.0418043 -0.901 178 255 75
0.0740867 0.0418043 -0.901 178 255 75
0.0756687 0.041827 -0.901 178 255 75
0.0772104 0.041827 -0.901 178 255 75
0.0787522 0.041827 -0.901 178 255 75
0.0802939 0.041827 -0.901 178 255 75
0.0821989 0.0420127 -0.905 246 255 7
0.0837475 0.0420127 -0.905 246 255 7
0.085336 0.0420324 -0.905 246 255 7
0.0868853 0.0420324 -0.905 246 255 7
0.0884347 0.0420324 -0.905 246 255 7
0.0901828 0.0421253 -0.907 255 244 0
0.0918367 0.0421717 -0.908 255 234 0
0.0932328 0.0421002 -0.906 255 253 0
0.09468 0.0420537 -0.905 246 255 7
0.0963364 0.0421002 -0.906 255 253 0
0.0977802 0.0420537 -0.905 246 255 7
0.0994401 0.0421002 -0.906 255 253 0
0.100705 0.0419804 -0.903 212 255 41
0.102365 0.0420269 -0.904 229 255 24
0.103799 0.0419804 -0.903 212 255 41
0.10523 0.0419339 -0.902 195 255 58
0.106776 0.0419339 -0.902 195 255 58
0.107904 0.0417723 -0.898 129 255 124
0.109444 0.0417723 -0.898 129 255 124
0.110983 0.0417723 -0.898 129 255 124
0.112147 0.0416328 -0.895 88 255 165
0.113605 0.0416046 -0.894 75 255 178
0.11501 0.0415581 -0.893 61 255 192
0.115889 0.0413254 -0.888 0 239 255
0.117148 0.0412323 -0.886 0 209 255
0.1186 0.0412087 -0.885 0 199 255
0.119983 0.0411622 -0.884 0 189 254
0.121363 0.0411156 -0.883 0 179 255
0.123157 0.0412087 -0.885 0 199 255
0.124313 0.041089 -0.882 0 170 255
0.125971 0.0411356 -0.883 0 179 255
0.12792 0.0412754 -0.886 0 209 255
0.129003 0.0411356 -0.883 0 179 255
0.130733 0.0412031 -0.884 0 189 254
0.132103 0.0411565 -0.883 0 179 255
0.13362 0.0411565 -0.883 0 179 255
0.13628 0.0415047 -0.89 15 255 238
0.13781 0.0415047 -0.89 15 255 238
0.139027 0.0414114 -0.888 0 239 255
0.140553 0.0414114 -0.888 0 239 255
0.142142 0.0414296 -0.888 0 239 255
0.143831 0.0414762 -0.889 0 255 254
0.145523 0.0415229 -0.89 15 255 238
0.147137 0.0415464 -0.89 15 255 238
0.148668 0.0415464 -0.89 15 255 238
0.150199 0.0415464 -0.89 15 255 238
0.152143 0.0416592 -0.892 46 255 207
0.153506 0.0416125 -0.891 31 255 222
0.15504 0.0416125 -0.891 31 255 222
0.157001 0.041726 -0.893 61 255 192
0.158362 0.0416793 -0.892 46 255 207
0.159539 0.0415859 -0.89 15 255 238
0.16081 0.0415182 -0.888 0 239 255
0.163254 0.041752 -0.893 61 255 192
0.163502 0.0414247 -0.886 0 209 255
0.165672 0.0415862 -0.889 0 255 254
0.168334 0.0418669 -0.895 88 255 165
0.167599 0.0413056 -0.883 0 179 255
0.16938 0.0413686 -0.884 0 189 254
-0.0601698 0.0450229 -1.008 131 0 0
-0.057952 0.0446417 -1 136 0 0
-0.0559623 0.0444185 -0.995 139 0 0
-0.0539351 0.0441507 -0.989 143 0 0
-0.0517171 0.0437042 -0.979 155 0 0
-0.0492266 0.04299 -0.963 180 0 0
-0.0466426 0.0421418 -0.944 228 0 0
-0.044839 0.0419632 -0.94 246 0 0
-0.042911 0.0416507 -0.933 255 26 0
-0.0410956 0.0414275 -0.928 255 54 0
-0.0396804 0.0416061 -0.932 255 30 0
-0.0380064 0.0415168 -0.93 255 41 0
-0.0361262 0.0411847 -0.923 255 86 0
-0.0344003 0.0410063 -0.919 255 114 0
-0.0328309 0.0410063 -0.919 255 114 0
-0.0312276 0.0409616 -0.918 255 123 0
-0.0295953 0.0408724 -0.916 255 140 0
-0.0280311 0.0408724 -0.916 255 140 0
-0.0264379 0.0408278 -0.915 255 151 0
-0.0247395 0.0406047 -0.91 255 210 0
-0.0231345 0.0405154 -0.908 255 234 0
-0.0215364 0.0404262 -0.906 255 253 0
-0.0199452 0.040337 -0.904 229 255 24
-0.0184218 0.0403816 -0.905 246 255 7
-0.0168204 0.0402477 -0.902 195 255 58
-0.0152123 0.0400692 -0.898 129 255 124
-0.0136331 0.0399354 -0.895 88 255 165
-0.0120777 0.0398461 -0.893 61 255 192
-0.0105409 0.0398015 -0.892 46 255 207
-0.00903787 0.0398908 -0.894 75 255 178
-0.00753641 0.0400246 -0.897 114 255 139
-0.00600463 0.0400246 -0.897 114 255 139
-0.00445788 0.0398908 -0.894 75 255 178
-0.00293122 0.0398908 -0.894 75 255 178
-0.00140769 0.03998 -0.896 101 255 152
0.000122386 0.03998 -0.896 101 255 152
0.00165062 0.0399354 -0.895 88 255 165
0.00317899 0.0399354 -0.895 88 255 165
0.00470736 0.0399354 -0.895 88 255 165
0.00623574 0.0399354 -0.895 88 255 165
0.00776411 0.0399354 -0.895 88 255 165
0.00927171 0.0398461 -0.893 61 255 192
0.0107846 0.0398015 -0.892 46 255 207
0.0123354 0.0398908 -0.894 75 255 178
0.0138931 0.03998 -0.896 101 255 152
0.015406 0.0399354 -0.895 88 255 165
0.0169343 0.0399354 -0.895 88 255 165
0.0184833 0.03998 -0.896 101 255 152
0.0201028 0.0401585 -0.9 162 255 91
0.0214473 0.0398015 -0.892 46 255 207
0.0229191 0.0397123 -0.89 15 255 238
0.0244389 0.0397123 -0.89 15 255 238
0.0259587 0.0397123 -0.89 15 255 238
0.0274786 0.0397123 -0.89 15 255 238
0.0289658 0.0396677 -0.889 0 255 254
0.0304496 0.039623 -0.888 0 239 255
0.0320381 0.0397123 -0.89 15 255 238
0.0335956 0.0397569 -0.891 31 255 222
0.0351171 0.0397569 -0.891 31 255 222
0.0366561 0.0397758 -0.891 31 255 222
0.0381783 0.0397758 -0.891 31 255 222
0.0397006 0.0397758 -0.891 31 255 222
0.0412229 0.0397758 -0.891 31 255 222
0.0426972 0.0397311 -0.89 15 255 238
0.0442177 0.0397311 -0.89 15 255 238
0.0457897 0.0397758 -0.891 31 255 222
0.0473119 0.0397758 -0.891 31 255 222
0.048889 0.0398204 -0.892 46 255 207
0.0504695 0.0398651 -0.893 61 255 192
0.0518787 0.0397758 -0.891 31 255 222
0.0534895 0.0398417 -0.892 46 255 207
0.0551376 0.039931 -0.894 75 255 178
0.0566658 0.039931 -0.894 75 255 178
0.0581289 0.0398863 -0.893 61 255 192
0.059789 0.0399757 -0.895 88 255 165
0.0614559 0.040065 -0.897 114 255 139
0.0629191 0.0400203 -0.896 101 255 152
0.0644507 0.0400203 -0.896 101 255 152
0.0660138 0.0400394 -0.896 101 255 152
0.0674707 0.0399947 -0.895 88 255 165
0.0690785 0.0400394 -0.896 101 255 152
0.0709261 0.0402182 -0.9 162 255 91
0.0724653 0.0402182 -0.9 162 255 91
0.0740044 0.0402182 -0.9 162 255 91
0.0757526 0.0403294 -0.902 195 255 58
0.0772961 0.0403294 -0.902 195 255 58
0.0788396 0.0403294 -0.902 195 255 58
0.0804721 0.0403741 -0.903 212 255 41
0.0822898 0.0405083 -0.906 255 253 0
0.0838401 0.0405083 -0.906 255 253 0
0.085336 0.0404825 -0.905 246 255 7
0.0868853 0.0404825 -0.905 246 255 7
0.0884347 0.0404825 -0.905 246 255 7
0.0902823 0.0406167 -0.908 255 234 0
0.0917356 0.040572 -0.907 255 244 0
0.0931854 0.0405272 -0.906 255 253 0
0.0947846 0.0405478 -0.906 255 253 0
0.0963364 0.0405478 -0.906 255 253 0
0.0979963 0.0405926 -0.907 255 244 0
0.0994401 0.0405478 -0.906 255 253 0
0.100657 0.0404136 -0.903 212 255 41
0.102365 0.0404773 -0.904 229 255 24
0.103799 0.0404325 -0.903 212 255 41
0.105347 0.0404325 -0.903 212 255 41
0.106776 0.0403877 -0.902 195 255 58
0.107904 0.0402321 -0.898 129 255 124
0.109322 0.0401873 -0.897 114 255 139
0.11086 0.0401873 -0.897 114 255 139
0.112022 0.0400528 -0.894 75 255 178
0.113555 0.0400528 -0.894 75 255 178
0.11501 0.0400257 -0.893 61 255 192
0.115628 0.039712 -0.886 0 209 255
0.117148 0.039712 -0.886 0 209 255
0.118534 0.0396671 -0.885 0 199 255
0.120119 0.0396892 -0.885 0 199 255
0.121638 0.0396892 -0.885 0 199 255
0.123017 0.0396444 -0.884 0 189 254
0.124454 0.0396188 -0.883 0 179 255
0.126113 0.0396637 -0.884 0 189 254
0.127776 0.0397085 -0.885 0 199 255
0.129441 0.0397534 -0.886 0 209 255
0.130733 0.0396838 -0.884 0 189 254
0.132103 0.0396389 -0.883 0 179 255
0.133922 0.0397287 -0.885 0 199 255
0.135902 0.0398634 -0.888 0 239 255
0.137655 0.0399294 -0.889 0 255 254
0.139183 0.0399294 -0.889 0 255 254
0.140711 0.0399294 -0.889 0 255 254
0.142462 0.0399918 -0.89 15 255 238
0.143992 0.0399918 -0.89 15 255 238
0.145523 0.0399918 -0.89 15 255 238
0.147137 0.0400144 -0.89 15 255 238
0.148668 0.0400144 -0.89 15 255 238
0.150199 0.0400144 -0.89 15 255 238
0.152143 0.0401231 -0.892 46 255 207
0.153506 0.0400782 -0.891 31 255 222
0.155214 0.0401231 -0.892 46 255 207
0.156925 0.0401681 -0.893 61 255 192
0.158006 0.0400525 -0.89 15 255 238
0.159539 0.0400525 -0.89 15 255 238
0.161615 0.0401875 -0.893 61 255 192
0.16234 0.0399873 -0.888 0 239 255
0.164055 0.0400323 -0.889 0 255 254
0.166418 0.040233 -0.893 61 255 192
0.167205 0.0400528 -0.889 0 255 254
0.167979 0.0398726 -0.885 0 199 255
-0.0580679 0.0430185 -1.002 135 0 0
-0.0560747 0.0428038 -0.997 139 0 0
-0.0540442 0.0425462 -0.991 142 0 0
-0.0519813 0.0422457 -0.984 148 0 0
-0.0496356 0.0416876 -0.971 164 0 0
-0.0469885 0.0408289 -0.951 206 0 0
-0.0448867 0.0403996 -0.941 240 0 0
-0.043049 0.0401849 -0.936 255 11 0
-0.041317 0.0400561 -0.933 255 26 0
-0.039723 0.0400561 -0.933 255 26 0
-0.0379066 0.0398226 -0.928 255 54 0
-0.0360479 0.0395222 -0.921 255 99 0
-0.0344752 0.0395222 -0.921 255 99 0
-0.0328667 0.0394793 -0.92 255 106 0
-0.0312276 0.0393934 -0.918 255 123 0
-0.0295953 0.0393076 -0.916 255 140 0
-0.0280311 0.0393076 -0.916 255 140 0
-0.0264379 0.0392647 -0.915 255 151 0
-0.024821 0.0391789 -0.913 255 172 0
-0.0231345 0.0389643 -0.908 255 234 0
-0.0214889 0.0387927 -0.904 229 255 24
-0.0198569 0.038621 -0.9 162 255 91
-0.0183607 0.0387068 -0.902 195 255 58
-0.0167644 0.0385781 -0.899 145 255 108
-0.0151276 0.0383206 -0.893 61 255 192
-0.0136483 0.0384494 -0.896 101 255 152
-0.0121182 0.0384494 -0.896 101 255 152
-0.0105527 0.0383206 -0.893 61 255 192
-0.00903787 0.0383635 -0.894 75 255 178
-0.00753641 0.0384923 -0.897 114 255 139
-0.00601132 0.0385352 -0.898 129 255 124
-0.00446287 0.0384065 -0.895 88 255 165
-0.00294105 0.0384923 -0.897 114 255 139
-0.00141084 0.0385352 -0.898 129 255 124
0.000122659 0.0385352 -0.898 129 255 124
0.00165615 0.0385352 -0.898 129 255 124
0.00318965 0.0385352 -0.898 129 255 124
0.00471262 0.0384494 -0.896 101 255 152
0.00622877 0.0383635 -0.894 75 255 178
0.00777278 0.0384494 -0.896 101 255 152
0.00929248 0.0384065 -0.895 88 255 165
0.0108208 0.0384065 -0.895 88 255 165
0.012363 0.0384494 -0.896 101 255 152
0.0139086 0.0384923 -0.897 114 255 139
0.0154232 0.0384494 -0.896 101 255 152
0.0169533 0.0384494 -0.896 101 255 152
0.018504 0.0384923 -0.897 114 255 139
0.0200358 0.0384923 -0.897 114 255 139
0.0215675 0.0384923 -0.897 114 255 139
0.0230993 0.0384923 -0.897 114 255 139
0.0245487 0.0383635 -0.894 75 255 178
0.0260171 0.0382777 -0.892 46 255 207
0.0275094 0.0382348 -0.891 31 255 222
0.0289984 0.0381919 -0.89 15 255 238
0.0305182 0.0381919 -0.89 15 255 238
0.0320381 0.0381919 -0.89 15 255 238
0.0335579 0.0381919 -0.89 15 255 238
0.0350383 0.038149 -0.889 0 255 254
0.0366387 0.0382348 -0.891 31 255 222
0.0382212 0.0382959 -0.892 46 255 207
0.0397006 0.038253 -0.891 31 255 222
0.0412229 0.038253 -0.891 31 255 222
0.0427451 0.038253 -0.891 31 255 222
0.0443171 0.0382959 -0.892 46 255 207
0.0457897 0.038253 -0.891 31 255 222
0.047365 0.0382959 -0.892 46 255 207
0.0488342 0.038253 -0.891 31 255 222
0.0503565 0.038253 -0.891 31 255 222
0.0518787 0.038253 -0.891 31 255 222
0.0534895 0.0383163 -0.892 46 255 207
0.0550759 0.0383593 -0.893 61 255 192
0.0564123 0.0382304 -0.89 15 255 238
0.0579987 0.0382734 -0.891 31 255 222
0.0597222 0.0384022 -0.894 75 255 178
0.0613874 0.0384882 -0.896 101 255 152
0.0629191 0.0384882 -0.896 101 255 152
0.0644507 0.0384882 -0.896 101 255 152
0.0660138 0.0385065 -0.896 101 255 152
0.0675461 0.0385065 -0.896 101 255 152
0.0690785 0.0385065 -0.896 101 255 152
0.0706896 0.0385495 -0.897 114 255 139
0.0723847 0.0386354 -0.899 145 255 108
0.0740867 0.0387214 -0.901 178 255 75
0.0757115 0.0387644 -0.902 195 255 58
0.0772104 0.0387424 -0.901 178 255 75
0.0788396 0.0387854 -0.902 195 255 58
0.0807395 0.0389574 -0.906 255 253 0
0.0822898 0.0389574 -0.906 255 253 0
0.0838401 0.0389574 -0.906 255 253 0
0.0853904 0.0389574 -0.906 255 253 0
0.0868853 0.0389326 -0.905 246 255 7
0.0884347 0.0389326 -0.905 246 255 7
0.0902823 0.0390617 -0.908 255 234 0
0.0917356 0.0390187 -0.907 255 244 0
0.0931854 0.0389757 -0.906 255 253 0
0.0947846 0.0389955 -0.906 255 253 0
0.0963364 0.0389955 -0.906 255 253 0
0.0979963 0.0390385 -0.907 255 244 0
0.0995498 0.0390385 -0.907 255 244 0
0.100657 0.0388663 -0.903 212 255 41
0.102478 0.0389707 -0.905 246 255 7
0.103914 0.0389276 -0.904 229 255 24
0.105347 0.0388845 -0.903 212 255 41
0.106302 0.0386692 -0.898 129 255 124
0.107841 0.0386692 -0.898 129 255 124
0.109322 0.0386487 -0.897 114 255 139
0.110489 0.0385194 -0.894 75 255 178
0.111897 0.0384763 -0.893 61 255 192
0.113428 0.0384763 -0.893 61 255 192
0.114881 0.0384502 -0.892 46 255 207
0.115497 0.0381485 -0.885 0 199 255
0.117148 0.0381916 -0.886 0 209 255
0.118534 0.0381485 -0.885 0 199 255
0.120254 0.0382129 -0.886 0 209 255
0.121638 0.0381697 -0.885 0 199 255
0.123017 0.0381266 -0.884 0 189 254
0.124394 0.0380835 -0.883 0 179 255
0.126113 0.0381452 -0.884 0 189 254
0.12792 0.0382315 -0.886 0 209 255
0.129587 0.0382746 -0.887 0 223 255
0.131029 0.0382509 -0.886 0 209 255
0.132402 0.0382077 -0.885 0 199 255
0.134376 0.0383372 -0.888 0 239 255
0.135902 0.0383372 -0.888 0 239 255
0.137655 0.0384007 -0.889 0 255 254
0.13934 0.0384439 -0.89 15 255 238
0.14087 0.0384439 -0.89 15 255 238
0.142622 0.0385039 -0.891 31 255 222
0.144154 0.0385039 -0.891 31 255 222
0.145523 0.0384607 -0.89 15 255 238
0.147219 0.0385039 -0.891 31 255 222
0.149002 0.038569 -0.892 46 255 207
0.150368 0.0385257 -0.891 31 255 222
0.151731 0.0384825 -0.89 15 255 238
0.153679 0.038587 -0.892 46 255 207
0.155388 0.0386303 -0.893 61 255 192
0.156925 0.0386303 -0.893 61 255 192
0.157829 0.0384758 -0.889 0 255 254
0.160077 0.0386489 -0.893 61 255 192
0.160348 0.0383459 -0.886 0 209 255
0.16234 0.0384564 -0.888 0 239 255
0.165163 0.0387595 -0.895 88 255 165
0.16596 0.0385863 -0.891 31 255 222
0.166077 0.0382594 -0.883 0 179 255
-0.0585894 0.041677 -1.011 131 0 0
-0.0560185 0.0410586 -0.996 139 0 0
-0.0543168 0.0410586 -0.996 139 0 0
-0.0521398 0.0406876 -0.987 143 0 0
-0.0499423 0.0402754 -0.977 157 0 0
-0.0476802 0.0397807 -0.965 177 0 0
-0.0449344 0.0388326 -0.942 235 0 0
-0.043003 0.038544 -0.935 255 17 0
-0.041317 0.0384615 -0.933 255 26 0
-0.0394914 0.0382373 -0.928 255 54 0
-0.0379475 0.0382785 -0.929 255 47 0
-0.0361654 0.0380725 -0.924 255 80 0
-0.0344752 0.0379488 -0.921 255 99 0
-0.0328667 0.0379076 -0.92 255 106 0
-0.0312616 0.0378664 -0.919 255 114 0
-0.0296276 0.037784 -0.917 255 131 0
-0.0280311 0.0377428 -0.916 255 140 0
-0.0264379 0.0377016 -0.915 255 151 0
-0.0248482 0.0376604 -0.914 255 162 0
-0.023211 0.0375368 -0.911 255 197 0
-0.0215602 0.037372 -0.907 255 244 0
-0.0199452 0.0372484 -0.904 229 255 24
-0.0183403 0.0371248 -0.901 178 255 75
-0.0166898 0.0368775 -0.895 88 255 165
-0.0151276 0.0367951 -0.893 61 255 192
-0.0136788 0.0370011 -0.898 129 255 124
-0.0121318 0.0369599 -0.897 114 255 139
-0.0105645 0.0368363 -0.894 75 255 178
-0.00904351 0.0368593 -0.895 88 255 165
-0.00754109 0.0369829 -0.898 129 255 124
-0.00598159 0.0368181 -0.894 75 255 178
-0.00446565 0.0369005 -0.896 101 255 152
-0.00294615 0.0370241 -0.899 145 255 108
-0.00141171 0.0370241 -0.899 145 255 108
0.000122462 0.0369417 -0.897 114 255 139
0.00165349 0.0369417 -0.897 114 255 139
0.00318807 0.0369829 -0.898 129 255 124
0.00471555 0.0369417 -0.897 114 255 139
0.00624658 0.0369417 -0.897 114 255 139
0.00776894 0.0369005 -0.896 101 255 152
0.00931324 0.0369599 -0.897 114 255 139
0.0108692 0.0370423 -0.899 145 255 108
0.0124044 0.0370423 -0.899 145 255 108
0.0139706 0.0371248 -0.901 178 255 75
0.0155092 0.0371248 -0.901 178 255 75
0.0170289 0.0370836 -0.9 162 255 91
0.0185452 0.0370423 -0.899 145 255 108
0.0201028 0.0370836 -0.9 162 255 91
0.0215675 0.0369599 -0.897 114 255 139
0.0230478 0.0368775 -0.895 88 255 165
0.0246311 0.0369599 -0.897 114 255 139
0.0261337 0.0369187 -0.896 101 255 152
0.0276329 0.0368775 -0.895 88 255 165
0.0290961 0.0367951 -0.893 61 255 192
0.0305868 0.0367539 -0.892 46 255 207
0.0321101 0.0367539 -0.892 46 255 207
0.0335579 0.0366715 -0.89 15 255 238
0.0349989 0.0365891 -0.888 0 239 255
0.0366387 0.0367127 -0.891 31 255 222
0.0382031 0.0367539 -0.892 46 255 207
0.0397006 0.0367302 -0.891 31 255 222
0.0412229 0.0367302 -0.891 31 255 222
0.0427931 0.0367714 -0.892 46 255 207
0.0443171 0.0367714 -0.892 46 255 207
0.0458411 0.0367714 -0.892 46 255 207
0.0474181 0.0368126 -0.893 61 255 192
0.048889 0.0367714 -0.892 46 255 207
0.0503565 0.0367302 -0.891 31 255 222
0.0518787 0.0367302 -0.891 31 255 222
0.0535209 0.0368126 -0.893 61 255 192
0.0551376 0.0368735 -0.894 75 255 178
0.0566024 0.0368323 -0.893 61 255 192
0.0581289 0.0368323 -0.893 61 255 192
0.0598558 0.036956 -0.896 101 255 152
0.0614559 0.0369972 -0.897 114 255 139
0.0629191 0.036956 -0.896 101 255 152
0.0644507 0.036956 -0.896 101 255 152
0.0659823 0.036956 -0.896 101 255 152
0.0675461 0.0369736 -0.896 101 255 152
0.0691556 0.0370149 -0.897 114 255 139
0.0708473 0.0370974 -0.899 145 255 108
0.0724653 0.0371387 -0.9 162 255 91
0.0742511 0.0372625 -0.903 212 255 41
0.0757955 0.0372625 -0.903 212 255 41
0.0773818 0.0372827 -0.903 212 255 41
0.078927 0.0372827 -0.903 212 255 41
0.0805612 0.037324 -0.904 229 255 24
0.0820173 0.0372827 -0.903 212 255 41
0.083655 0.037324 -0.904 229 255 24
0.0852961 0.0373653 -0.905 246 255 7
0.0868853 0.0373828 -0.905 246 255 7
0.0885324 0.0374241 -0.906 255 253 0
0.0901828 0.0374654 -0.907 255 244 0
0.0916344 0.0374241 -0.906 255 253 0
0.0932883 0.0374654 -0.907 255 244 0
0.0952593 0.0376306 -0.911 255 197 0
0.0963364 0.0374431 -0.906 255 253 0
0.0981043 0.0375258 -0.908 255 234 0
0.0997693 0.0375671 -0.909 255 223 0
0.100657 0.0373191 -0.903 212 255 41
0.102592 0.0374606 -0.906 255 253 0
0.104029 0.0374193 -0.905 246 255 7
0.104997 0.0372125 -0.9 162 255 91
0.106302 0.0371298 -0.898 129 255 124
0.107721 0.0370885 -0.897 114 255 139
0.109322 0.0371101 -0.897 114 255 139
0.110489 0.036986 -0.894 75 255 178
0.112022 0.036986 -0.894 75 255 178
0.113555 0.036986 -0.894 75 255 178
0.114881 0.0369196 -0.892 46 255 207
0.115889 0.036754 -0.888 0 239 255
0.117148 0.0366712 -0.886 0 209 255
0.118802 0.0367126 -0.887 0 223 255
0.120662 0.0368159 -0.889 0 255 254
0.12205 0.0367745 -0.888 0 239 255
0.123017 0.0366088 -0.884 0 189 254
0.124675 0.0366502 -0.885 0 199 255
0.126256 0.0366681 -0.885 0 199 255
0.12792 0.0367095 -0.886 0 209 255
0.129441 0.0367095 -0.886 0 209 255
0.131111 0.0367509 -0.887 0 223 255
0.132551 0.0367282 -0.886 0 209 255
0.134225 0.0367696 -0.887 0 223 255
0.136055 0.0368525 -0.889 0 255 254
0.13781 0.0369135 -0.89 15 255 238
0.13934 0.0369135 -0.89 15 255 238
0.14087 0.0369135 -0.89 15 255 238
0.142399 0.0369135 -0.89 15 255 238
0.143992 0.0369296 -0.89 15 255 238
0.145686 0.0369711 -0.891 31 255 222
0.147219 0.0369711 -0.891 31 255 222
0.149002 0.0370336 -0.892 46 255 207
0.150368 0.0369921 -0.891 31 255 222
0.152072 0.0370336 -0.892 46 255 207
0.154023 0.037134 -0.894 75 255 178
0.155214 0.0370509 -0.892 46 255 207
0.156574 0.0370094 -0.891 31 255 222
0.158717 0.0371519 -0.894 75 255 178
0.158822 0.0368194 -0.886 0 209 255
0.160891 0.0369441 -0.889 0 255 254
0.163437 0.037175 -0.894 75 255 178
0.16424 0.0370086 -0.89 15 255 238
0.164656 0.0367591 -0.884 0 189 254
-0.056131 0.0394354 -0.998 138 0 0
-0.0543714 0.0393959 -0.997 139 0 0
-0.0522454 0.0390798 -0.989 143 0 0
-0.0500445 0.0386846 -0.979 155 0 0
-0.0478284 0.03825 -0.968 171 0 0
-0.0449821 0.0372621 -0.943 232 0 0
-0.0427731 0.0367484 -0.93 255 41 0
-0.0413417 0.0368889 -0.934 255 22 0
-0.0396616 0.03681 -0.932 255 30 0
-0.0379883 0.036731 -0.93 255 41 0
-0.0362436 0.036573 -0.926 255 67 0
-0.03455 0.0364545 -0.923 255 86 0
-0.0328667 0.036336 -0.92 255 106 0
-0.0312956 0.036336 -0.92 255 106 0
-0.0296276 0.0362175 -0.917 255 131 0
-0.0280005 0.0361385 -0.915 255 151 0
-0.0263802 0.0360595 -0.913 255 172 0
-0.0247667 0.0359805 -0.911 255 197 0
-0.0231855 0.0359411 -0.91 255 210 0
-0.0216315 0.0359411 -0.91 255 210 0
-0.0200996 0.0359805 -0.911 255 197 0
-0.0183811 0.0356646 -0.903 212 255 41
-0.0167271 0.0354276 -0.897 114 255 139
-0.0152292 0.0355066 -0.899 145 255 108
-0.0137025 0.0355285 -0.9 162 255 91
-0.0121663 0.0355285 -0.9 162 255 91
-0.0105711 0.0353312 -0.895 88 255 165
-0.00904351 0.0353312 -0.895 88 255 165
-0.00758308 0.035647 -0.903 212 255 41
-0.00600835 0.0354496 -0.898 129 255 124
-0.0044806 0.0354891 -0.899 145 255 108
-0.00293304 0.0353312 -0.895 88 255 165
-0.001407 0.0353706 -0.896 101 255 152
0.000122462 0.0354101 -0.897 114 255 139
0.00165165 0.0353706 -0.896 101 255 152
0.00318807 0.0354496 -0.898 129 255 124
0.00472607 0.0354891 -0.899 145 255 108
0.00626051 0.0354891 -0.899 145 255 108
0.00778628 0.0354496 -0.898 129 255 124
0.00935015 0.035568 -0.901 178 255 75
0.0109122 0.035647 -0.903 212 255 41
0.0124672 0.0356864 -0.904 229 255 24
0.0140102 0.0356864 -0.904 229 255 24
0.0155437 0.0356646 -0.903 212 255 41
0.0170668 0.0356251 -0.902 195 255 58
0.0186277 0.0356646 -0.903 212 255 41
0.0201474 0.0356251 -0.902 195 255 58
0.0216878 0.0356251 -0.902 195 255 58
0.0232281 0.0356251 -0.902 195 255 58
0.0247135 0.0355461 -0.9 162 255 91
0.0261337 0.0353881 -0.896 101 255 152
0.0276329 0.0353486 -0.895 88 255 165
0.0291939 0.0353881 -0.896 101 255 152
0.0305525 0.0351906 -0.891 31 255 222
0.0321821 0.0353091 -0.894 75 255 178
0.033671 0.0352696 -0.893 61 255 192
0.0350777 0.0351511 -0.89 15 255 238
0.0366798 0.0352301 -0.892 46 255 207
0.0382459 0.0352696 -0.893 61 255 192
0.0397263 0.0352301 -0.892 46 255 207
0.0412691 0.0352469 -0.892 46 255 207
0.0428411 0.0352864 -0.893 61 255 192
0.0443668 0.0352864 -0.893 61 255 192
0.0458411 0.0352469 -0.892 46 255 207
0.047365 0.0352469 -0.892 46 255 207
0.048889 0.0352469 -0.892 46 255 207
0.050413 0.0352469 -0.892 46 255 207
0.0520534 0.0353259 -0.894 75 255 178
0.0537007 0.0354049 -0.896 101 255 152
0.0552931 0.0354444 -0.897 114 255 139
0.0567926 0.0354238 -0.896 101 255 152
0.0583893 0.0354634 -0.897 114 255 139
0.0599226 0.0354634 -0.897 114 255 139
0.0614559 0.0354634 -0.897 114 255 139
0.0629893 0.0354634 -0.897 114 255 139
0.0645226 0.0354634 -0.897 114 255 139
0.0660559 0.0354634 -0.897 114 255 139
0.0676969 0.0355198 -0.898 129 255 124
0.0693869 0.0355989 -0.9 162 255 91
0.0709261 0.0355989 -0.9 162 255 91
0.0724653 0.0355989 -0.9 162 255 91
0.0740044 0.0355989 -0.9 162 255 91
0.0756276 0.0356385 -0.901 178 255 75
0.0772541 0.035678 -0.902 195 255 58
0.0790144 0.0357766 -0.904 229 255 24
0.0804721 0.035737 -0.903 212 255 41
0.0820173 0.035737 -0.903 212 255 41
0.0835625 0.035737 -0.903 212 255 41
0.0852961 0.0358161 -0.905 246 255 7
0.0869407 0.0358557 -0.906 255 253 0
0.0885324 0.0358725 -0.906 255 253 0
0.0900834 0.0358725 -0.906 255 253 0
0.0917356 0.0359121 -0.907 255 244 0
0.0933911 0.0359517 -0.908 255 234 0
0.0953639 0.0361101 -0.912 255 184 0
0.0962301 0.0358511 -0.905 246 255 7
0.0981043 0.03597 -0.908 255 234 0
0.0997693 0.0360096 -0.909 255 223 0
0.100657 0.0357719 -0.903 212 255 41
0.102544 0.0358907 -0.906 255 253 0
0.104029 0.0358679 -0.905 246 255 7
0.10488 0.0356301 -0.899 145 255 108
0.106421 0.0356301 -0.899 145 255 108
0.107721 0.0355508 -0.897 114 255 139
0.1092 0.0355319 -0.896 101 255 152
0.110489 0.0354526 -0.894 75 255 178
0.112147 0.0354923 -0.895 88 255 165
0.113555 0.0354526 -0.894 75 255 178
0.115088 0.0354526 -0.894 75 255 178
0.116019 0.0352699 -0.889 0 255 254
0.11728 0.0351905 -0.887 0 223 255
0.118802 0.0351905 -0.887 0 223 255
0.120323 0.0351905 -0.887 0 223 255
0.121775 0.0351704 -0.886 0 209 255
0.123157 0.0351307 -0.885 0 199 255
0.124675 0.0351307 -0.885 0 199 255
0.126399 0.0351876 -0.886 0 209 255
0.128064 0.0352273 -0.887 0 223 255
0.129587 0.0352273 -0.887 0 223 255
0.131258 0.035267 -0.888 0 239 255
0.132851 0.0352849 -0.888 0 239 255
0.134225 0.0352452 -0.887 0 223 255
0.136055 0.0353246 -0.889 0 255 254
0.137965 0.0354228 -0.891 31 255 222
0.13934 0.0353831 -0.89 15 255 238
0.140553 0.0353035 -0.888 0 239 255
0.142399 0.0353831 -0.89 15 255 238
0.144316 0.0354781 -0.892 46 255 207
0.14585 0.0354781 -0.892 46 255 207
0.147219 0.0354383 -0.891 31 255 222
0.149002 0.0354982 -0.892 46 255 207
0.150706 0.035538 -0.893 61 255 192
0.152413 0.0355778 -0.894 75 255 178
0.153851 0.0355546 -0.893 61 255 192
0.154866 0.0354352 -0.89 15 255 238
0.157453 0.0356741 -0.896 101 255 152
0.157474 0.0353328 -0.887 0 223 255
0.15936 0.0354124 -0.889 0 255 254
0.161253 0.0354921 -0.891 31 255 222
0.162523 0.0354344 -0.889 0 255 254
0.163133 0.0352351 -0.884 0 189 254
-0.0568622 0.0382212 -1.011 131 0 0
-0.0542078 0.0375785 -0.994 139 0 0
-0.0521398 0.0373138 -0.987 143 0 0
-0.0503001 0.0372004 -0.984 148 0 0
-0.0480755 0.0367846 -0.973 161 0 0
-0.0454591 0.0360285 -0.953 199 0 0
-0.0432125 0.0355201 -0.94 246 0 0
-0.0412974 0.0352556 -0.933 255 26 0
-0.0398318 0.035369 -0.936 255 11 0
-0.0379475 0.0351045 -0.929 255 47 0
-0.0362828 0.0350289 -0.927 255 60 0
-0.03455 0.0348777 -0.923 255 86 0
-0.0329738 0.0348777 -0.923 255 86 0
-0.0313977 0.0348777 -0.923 255 86 0
-0.0297569 0.0348022 -0.921 255 99 0
-0.0280617 0.034651 -0.917 255 131 0
-0.0263802 0.0344999 -0.913 255 172 0
-0.0247667 0.0344243 -0.911 255 197 0
-0.0232365 0.0344621 -0.912 255 184 0
-0.0216315 0.0343865 -0.91 255 210 0
-0.0200775 0.0343865 -0.91 255 210 0
-0.0183607 0.0340842 -0.902 195 255 58
-0.0167748 0.0339918 -0.9 162 255 91
-0.0152386 0.0339918 -0.9 162 255 91
-0.0137025 0.0339918 -0.9 162 255 91
-0.0121799 0.0340296 -0.901 178 255 75
-0.0106066 0.0339163 -0.898 129 255 124
-0.00905361 0.0338408 -0.896 101 255 152
-0.00758308 0.0341051 -0.903 212 255 41
-0.00602173 0.0339918 -0.9 162 255 91
-0.0044806 0.0339541 -0.899 145 255 108
-0.00294943 0.0339918 -0.9 162 255 91
-0.00140857 0.0338785 -0.897 114 255 139
0.000122735 0.0339541 -0.899 145 255 108
0.00166271 0.0340674 -0.902 195 255 58
0.00320937 0.0341429 -0.904 229 255 24
0.00475761 0.0341807 -0.905 246 255 7
0.00629533 0.0341429 -0.904 229 255 24
0.00783831 0.0341429 -0.904 229 255 24
0.00937091 0.0341051 -0.903 212 255 41
0.0109243 0.0341429 -0.904 229 255 24
0.0124672 0.0341429 -0.904 229 255 24
0.0140102 0.0341429 -0.904 229 255 24
0.0155532 0.0341429 -0.904 229 255 24
0.0171151 0.0341807 -0.905 246 255 7
0.018669 0.0341976 -0.905 246 255 7
0.0201921 0.0341598 -0.904 229 255 24
0.0216878 0.0340842 -0.902 195 255 58
0.0232538 0.034122 -0.903 212 255 41
0.024686 0.0339708 -0.899 145 255 108
0.0261337 0.0338575 -0.896 101 255 152
0.0277873 0.0340086 -0.9 162 255 91
0.0291939 0.0338575 -0.896 101 255 152
0.0306897 0.0338197 -0.895 88 255 165
0.0321101 0.0337063 -0.892 46 255 207
0.0337087 0.0337819 -0.894 75 255 178
0.0351566 0.0337063 -0.892 46 255 207
0.036762 0.0337819 -0.894 75 255 178
0.0382459 0.0337441 -0.893 61 255 192
0.0397708 0.0337441 -0.893 61 255 192
0.0412033 0.0336685 -0.891 31 255 222
0.0426972 0.0336467 -0.89 15 255 238
0.0442177 0.0336467 -0.89 15 255 238
0.0458411 0.0337223 -0.892 46 255 207
0.047365 0.0337223 -0.892 46 255 207
0.0488342 0.0336845 -0.891 31 255 222
0.050526 0.033798 -0.894 75 255 178
0.0521698 0.0338736 -0.896 101 255 152
0.0538205 0.0339492 -0.898 129 255 124
0.0554164 0.033987 -0.899 145 255 108
0.056856 0.0339295 -0.897 114 255 139
0.0583893 0.0339295 -0.897 114 255 139
0.0598558 0.0338916 -0.896 101 255 152
0.0613874 0.0338916 -0.896 101 255 152
0.0629191 0.0338916 -0.896 101 255 152
0.0645945 0.0339673 -0.898 129 255 124
0.0661296 0.0339673 -0.898 129 255 124
0.0678153 0.0340429 -0.9 162 255 91
0.0695411 0.0341349 -0.902 195 255 58
0.0710049 0.034097 -0.901 178 255 75
0.0723042 0.0339835 -0.898 129 255 124
0.0736755 0.0339078 -0.896 101 255 152
0.0753758 0.0339835 -0.898 129 255 124
0.0772541 0.0341349 -0.902 195 255 58
0.078927 0.0341913 -0.903 212 255 41
0.0804721 0.0341913 -0.903 212 255 41
0.0820173 0.0341913 -0.903 212 255 41
0.083655 0.0342291 -0.904 229 255 24
0.0852961 0.034267 -0.905 246 255 7
0.0868447 0.034267 -0.905 246 255 7
0.0885324 0.0343209 -0.906 255 253 0
0.0901828 0.0343588 -0.907 255 244 0
0.0916344 0.0343209 -0.906 255 253 0
0.0931854 0.0343209 -0.906 255 253 0
0.0947365 0.0343209 -0.906 255 253 0
0.0962301 0.0343005 -0.905 246 255 7
0.0981043 0.0344142 -0.908 255 234 0
0.0993303 0.0343005 -0.905 246 255 7
0.100992 0.0343384 -0.906 255 253 0
0.102544 0.0343384 -0.906 255 253 0
0.104029 0.0343165 -0.905 246 255 7
0.104997 0.0341269 -0.9 162 255 91
0.106657 0.0341648 -0.901 178 255 75
0.107841 0.0340511 -0.898 129 255 124
0.109258 0.0340132 -0.897 114 255 139
0.110489 0.0339192 -0.894 75 255 178
0.112147 0.0339571 -0.895 88 255 165
0.113555 0.0339192 -0.894 75 255 178
0.114959 0.0338812 -0.893 61 255 192
0.11615 0.0337823 -0.89 15 255 238
0.117412 0.0337064 -0.888 0 239 255
0.118802 0.0336684 -0.887 0 223 255
0.120323 0.0336684 -0.887 0 223 255
0.121775 0.0336492 -0.886 0 209 255
0.123296 0.0336492 -0.886 0 209 255
0.124957 0.0336872 -0.887 0 223 255
0.126622 0.0337252 -0.888 0 239 255
0.128209 0.0337416 -0.888 0 239 255
0.129734 0.0337416 -0.888 0 239 255
0.131258 0.0337416 -0.888 0 239 255
0.132851 0.0337587 -0.888 0 239 255
0.134225 0.0337207 -0.887 0 223 255
0.135902 0.0337587 -0.888 0 239 255
0.137582 0.0337967 -0.889 0 255 254
0.139183 0.0338146 -0.889 0 255 254
0.140553 0.0337766 -0.888 0 239 255
0.142399 0.0338526 -0.89 15 255 238
0.144478 0.0339816 -0.893 61 255 192
0.146013 0.0339816 -0.893 61 255 192
0.147219 0.0339055 -0.891 31 255 222
0.148835 0.0339247 -0.891 31 255 222
0.151043 0.034077 -0.895 88 255 165
0.152242 0.0340009 -0.893 61 255 192
0.153679 0.0339787 -0.892 46 255 207
0.155736 0.034093 -0.895 88 255 165
0.156047 0.0338263 -0.888 0 239 255
0.157829 0.0338807 -0.889 0 255 254
0.159002 0.0338045 -0.887 0 223 255
0.161253 0.033957 -0.891 31 255 222
0.161243 0.0336348 -0.882 0 170 255
-0.0540442 0.0357713 -0.991 142 0 0
-0.0524039 0.0358074 -0.992 141 0 0
-0.0503001 0.0355187 -0.984 148 0 0
-0.0481743 0.0351938 -0.975 159 0 0
-0.0458666 0.0347081 -0.962 181 0 0
-0.0435343 0.0341669 -0.947 219 0 0
-0.0412089 0.0335896 -0.931 255 35 0
-0.0398744 0.0338061 -0.937 255 6 0
-0.0379066 0.0334814 -0.928 255 54 0
-0.0362828 0.0334453 -0.927 255 60 0
-0.0346249 0.0333731 -0.925 255 73 0
-0.0330096 0.0333371 -0.924 255 80 0
-0.0314317 0.0333371 -0.924 255 80 0
-0.0297892 0.0332649 -0.922 255 93 0
-0.0280923 0.0331206 -0.918 255 123 0
-0.0264091 0.0329763 -0.914 255 162 0
-0.024821 0.0329402 -0.913 255 172 0
-0.0232619 0.0329402 -0.913 255 172 0
-0.0217028 0.0329402 -0.913 255 172 0
-0.0200015 0.0327076 -0.907 255 244 0
-0.0183313 0.0324912 -0.901 178 255 75
-0.0167934 0.0324912 -0.901 178 255 75
-0.0152386 0.0324551 -0.9 162 255 91
-0.0137177 0.0324912 -0.901 178 255 75
-0.0121663 0.0324551 -0.9 162 255 91
-0.0105947 0.0323469 -0.897 114 255 139
-0.00904351 0.0322748 -0.895 88 255 165
-0.00758308 0.0325633 -0.903 212 255 41
-0.00602173 0.0324551 -0.9 162 255 91
-0.00450552 0.0325994 -0.904 229 255 24
-0.00297565 0.0327436 -0.908 255 234 0
-0.00142584 0.0327436 -0.908 255 234 0
0.000123827 0.0327076 -0.907 255 244 0
0.00167377 0.0327436 -0.908 255 234 0
0.00321292 0.0326354 -0.905 246 255 7
0.00474709 0.0325633 -0.903 212 255 41
0.00629533 0.0325994 -0.904 229 255 24
0.00784698 0.0326354 -0.905 246 255 7
0.00938129 0.0325994 -0.904 229 255 24
0.0109243 0.0325994 -0.904 229 255 24
0.0124672 0.0325994 -0.904 229 255 24
0.0140567 0.0327076 -0.907 255 244 0
0.0155704 0.0326354 -0.905 246 255 7
0.0170962 0.0325994 -0.904 229 255 24
0.0186598 0.0326354 -0.905 246 255 7
0.0201921 0.0326155 -0.904 229 255 24
0.0217118 0.0325794 -0.903 212 255 41
0.0232023 0.0325072 -0.901 178 255 75
0.024686 0.0324351 -0.899 145 255 108
0.0261921 0.032399 -0.898 129 255 124
0.0276638 0.0323269 -0.896 101 255 152
0.0292916 0.0324351 -0.899 145 255 108
0.0307583 0.0323629 -0.897 114 255 139
0.0321461 0.0322186 -0.893 61 255 192
0.0336333 0.0321825 -0.892 46 255 207
0.035196 0.0322186 -0.893 61 255 192
0.0368032 0.0322908 -0.895 88 255 165
0.0382887 0.0322547 -0.894 75 255 178
0.0398154 0.0322547 -0.894 75 255 178
0.0411108 0.0320743 -0.889 0 255 254
0.0426972 0.0321256 -0.89 15 255 238
0.044168 0.0320895 -0.889 0 255 254
0.0458925 0.0322339 -0.893 61 255 192
0.0475243 0.0323061 -0.895 88 255 165
0.0490534 0.0323061 -0.895 88 255 165
0.0505825 0.0323061 -0.895 88 255 165
0.0521698 0.0323422 -0.896 101 255 152
0.0537606 0.0323783 -0.897 114 255 139
0.0552931 0.0323783 -0.897 114 255 139
0.0568256 0.0323783 -0.897 114 255 139
0.0583893 0.0323956 -0.897 114 255 139
0.0598558 0.0323595 -0.896 101 255 152
0.0614559 0.0323956 -0.897 114 255 139
0.0629893 0.0323956 -0.897 114 255 139
0.0645945 0.0324317 -0.898 129 255 124
0.0661296 0.0324317 -0.898 129 255 124
0.06774 0.0324678 -0.899 145 255 108
0.0695411 0.0325917 -0.902 195 255 58
0.0710837 0.0325917 -0.902 195 255 58
0.0726263 0.0325917 -0.902 195 255 58
0.0740044 0.0325194 -0.9 162 255 91
0.0757115 0.0325917 -0.902 195 255 58
0.0773398 0.0326278 -0.903 212 255 41
0.0789715 0.032664 -0.904 229 255 24
0.0804721 0.0326456 -0.903 212 255 41
0.0822898 0.032754 -0.906 255 253 0
0.0838401 0.032754 -0.906 255 253 0
0.0853904 0.032754 -0.906 255 253 0
0.0869407 0.032754 -0.906 255 253 0
0.0885324 0.0327693 -0.906 255 253 0
0.0900834 0.0327693 -0.906 255 253 0
0.0916344 0.0327693 -0.906 255 253 0
0.0931854 0.0327693 -0.906 255 253 0
0.0946319 0.0327332 -0.905 246 255 7
0.0958624 0.0326247 -0.902 195 255 58
0.0979963 0.0328222 -0.907 255 244 0
0.0992205 0.0327136 -0.904 229 255 24
0.101103 0.0328222 -0.907 255 244 0
0.102657 0.0328222 -0.907 255 244 0
0.103914 0.0327289 -0.904 229 255 24
0.104997 0.0325841 -0.9 162 255 91
0.106539 0.0325841 -0.9 162 255 91
0.108081 0.0325841 -0.9 162 255 91
0.109258 0.0324755 -0.897 114 255 139
0.11086 0.0324944 -0.897 114 255 139
0.112398 0.0324944 -0.897 114 255 139
0.113682 0.032422 -0.895 88 255 165
0.11483 0.0323133 -0.892 46 255 207
0.11615 0.0322551 -0.89 15 255 238
0.117544 0.0322188 -0.889 0 255 254
0.118935 0.0321826 -0.888 0 239 255
0.120459 0.0321826 -0.888 0 239 255
0.12205 0.0322005 -0.888 0 239 255
0.123296 0.032128 -0.886 0 209 255
0.124957 0.0321643 -0.887 0 223 255
0.126765 0.0322368 -0.889 0 255 254
0.128353 0.0322525 -0.889 0 255 254
0.12988 0.0322525 -0.889 0 255 254
0.131406 0.0322525 -0.889 0 255 254
0.132701 0.0321963 -0.887 0 223 255
0.134225 0.0321963 -0.887 0 223 255
0.135749 0.0321963 -0.887 0 223 255
0.137428 0.0322326 -0.888 0 239 255
0.13934 0.0323222 -0.89 15 255 238
0.141028 0.0323585 -0.891 31 255 222
0.142719 0.0323949 -0.892 46 255 207
0.144316 0.0324091 -0.892 46 255 207
0.14585 0.0324091 -0.892 46 255 207
0.147384 0.0324091 -0.892 46 255 207
0.148751 0.0323727 -0.891 31 255 222
0.150537 0.0324274 -0.892 46 255 207
0.152242 0.0324638 -0.893 61 255 192
0.154468 0.0326092 -0.897 114 255 139
0.154518 0.0322971 -0.888 0 239 255
0.156047 0.0322971 -0.888 0 239 255
0.157575 0.0322971 -0.888 0 239 255
0.160256 0.032531 -0.894 75 255 178
0.160167 0.0322035 -0.885 0 199 255
-0.0546441 0.0344559 -1.002 135 0 0
-0.0525624 0.0342152 -0.995 139 0 0
-0.0503512 0.0338713 -0.985 146 0 0
-0.0482731 0.0335962 -0.977 157 0 0
-0.0465818 0.0335803 -0.977 157 0 0
-0.0436262 0.0326179 -0.949 212 0 0
-0.0415187 0.0322398 -0.938 255 1 0
-0.0397893 0.0321367 -0.935 255 17 0
-0.0380292 0.0319992 -0.931 255 35 0
-0.0363219 0.0318961 -0.928 255 54 0
-0.0346249 0.031793 -0.925 255 73 0
-0.0329738 0.0317242 -0.923 255 86 0
-0.0314317 0.0317586 -0.924 255 80 0
-0.0298215 0.0317242 -0.923 255 86 0
-0.0281229 0.0315868 -0.919 255 114 0
-0.0264379 0.0314493 -0.915 255 151 0
-0.0247939 0.0313462 -0.912 255 184 0
-0.0232365 0.0313462 -0.912 255 184 0
-0.0216683 0.0313307 -0.912 255 184 0
-0.0200676 0.031262 -0.91 255 210 0
-0.018372 0.0310215 -0.903 212 255 41
-0.0168121 0.0309871 -0.902 195 255 58
-0.0152894 0.0310215 -0.903 212 255 41
-0.0137634 0.0310558 -0.904 229 255 24
-0.0121663 0.0309184 -0.9 162 255 91
-0.0106066 0.0308497 -0.898 129 255 124
-0.00905361 0.030781 -0.896 101 255 152
-0.00758308 0.0310215 -0.903 212 255 41
-0.00602173 0.0309184 -0.9 162 255 91
-0.00451548 0.0311246 -0.906 255 253 0
-0.00297565 0.0311933 -0.908 255 234 0
-0.00142741 0.0312276 -0.909 255 223 0
0.000123827 0.0311589 -0.907 255 244 0
0.00167746 0.031262 -0.91 255 210 0
0.00322357 0.0311933 -0.908 255 234 0
0.00476812 0.0311589 -0.907 255 244 0
0.00633015 0.0312276 -0.909 255 223 0
0.00787299 0.0311933 -0.908 255 234 0
0.00940204 0.0311246 -0.906 255 253 0
0.0109484 0.0311246 -0.906 255 253 0
0.0124948 0.0311246 -0.906 255 253 0
0.0141187 0.0312963 -0.911 255 197 0
0.0156736 0.0312963 -0.911 255 197 0
0.0171151 0.0310902 -0.905 246 255 7
0.0186804 0.0311246 -0.906 255 253 0
0.0202045 0.0310902 -0.905 246 255 7
0.0217011 0.0310215 -0.903 212 255 41
0.0231766 0.0309337 -0.9 162 255 91
0.024686 0.0308993 -0.899 145 255 108
0.0262504 0.0309337 -0.9 162 255 91
0.0277256 0.030865 -0.898 129 255 124
0.0291939 0.0307962 -0.896 101 255 152
0.030724 0.0307962 -0.896 101 255 152
0.0321821 0.0307275 -0.894 75 255 178
0.0336333 0.0306587 -0.892 46 255 207
0.035196 0.0306931 -0.893 61 255 192
0.036762 0.0307275 -0.894 75 255 178
0.0383315 0.0307619 -0.895 88 255 165
0.0398154 0.0307275 -0.894 75 255 178
0.041342 0.0307275 -0.894 75 255 178
0.0428208 0.0306931 -0.893 61 255 192
0.0444164 0.0307421 -0.894 75 255 178
0.0460466 0.0308109 -0.896 101 255 152
0.0476305 0.0308452 -0.897 114 255 139
0.049163 0.0308452 -0.897 114 255 139
0.0506956 0.0308452 -0.897 114 255 139
0.0522281 0.0308452 -0.897 114 255 139
0.0537606 0.0308452 -0.897 114 255 139
0.0552931 0.0308452 -0.897 114 255 139
0.0568256 0.0308452 -0.897 114 255 139
0.0583893 0.0308617 -0.897 114 255 139
0.0599226 0.0308617 -0.897 114 255 139
0.0615245 0.0308961 -0.898 129 255 124
0.0630595 0.0308961 -0.898 129 255 124
0.0645945 0.0308961 -0.898 129 255 124
0.0661296 0.0308961 -0.898 129 255 124
0.0676646 0.0308961 -0.898 129 255 124
0.0693538 0.0309649 -0.9 162 255 91
0.0710837 0.0310485 -0.902 195 255 58
0.0726263 0.0310485 -0.902 195 255 58
0.0741689 0.0310485 -0.902 195 255 58
0.0758794 0.0311174 -0.904 229 255 24
0.0774254 0.0311174 -0.904 229 255 24
0.0789715 0.0311174 -0.904 229 255 24
0.0805612 0.0311343 -0.904 229 255 24
0.0821081 0.0311343 -0.904 229 255 24
0.0838401 0.0312032 -0.906 255 253 0
0.0852961 0.0311687 -0.905 246 255 7
0.0869407 0.0312032 -0.906 255 253 0
0.0885886 0.0312376 -0.907 255 244 0
0.0900834 0.0312178 -0.906 255 253 0
0.0916344 0.0312178 -0.906 255 253 0
0.0932883 0.0312522 -0.907 255 244 0
0.0946319 0.0311833 -0.905 246 255 7
0.0958624 0.0310799 -0.902 195 255 58
0.0974561 0.0310957 -0.902 195 255 58
0.0992205 0.0311647 -0.904 229 255 24
0.10088 0.0311992 -0.905 246 255 7
0.102317 0.0311647 -0.904 229 255 24
0.103866 0.0311647 -0.904 229 255 24
0.105347 0.0311448 -0.903 212 255 41
0.106539 0.0310413 -0.9 162 255 91
0.108081 0.0310413 -0.9 162 255 91
0.109624 0.0310413 -0.9 162 255 91
0.111107 0.0310249 -0.899 145 255 108
0.112523 0.0309904 -0.898 129 255 124
0.113555 0.0308523 -0.894 75 255 178
0.114701 0.0307488 -0.891 31 255 222
0.115889 0.0306588 -0.888 0 239 255
0.11728 0.0306243 -0.887 0 223 255
0.118802 0.0306243 -0.887 0 223 255
0.120323 0.0306243 -0.887 0 223 255
0.12205 0.0306759 -0.888 0 239 255
0.123574 0.0306759 -0.888 0 239 255
0.125098 0.0306759 -0.888 0 239 255
0.126907 0.030745 -0.89 15 255 238
0.128353 0.0307254 -0.889 0 255 254
0.130172 0.0307945 -0.891 31 255 222
0.131702 0.0307945 -0.891 31 255 222
0.132933 0.0307254 -0.889 0 255 254
0.134528 0.030741 -0.889 0 255 254
0.136055 0.030741 -0.889 0 255 254
0.137737 0.0307756 -0.89 15 255 238
0.139653 0.030861 -0.892 46 255 207
0.141503 0.0309302 -0.894 75 255 178
0.142879 0.0308956 -0.893 61 255 192
0.144253 0.030861 -0.892 46 255 207
0.146013 0.0309091 -0.893 61 255 192
0.147384 0.0308745 -0.892 46 255 207
0.149085 0.0309091 -0.893 61 255 192
0.151043 0.0309959 -0.895 88 255 165
0.152583 0.0309959 -0.895 88 255 165
0.153951 0.0309613 -0.894 75 255 178
0.154518 0.0307679 -0.888 0 239 255
0.15552 0.0306639 -0.885 0 199 255
0.158818 0.0310104 -0.895 88 255 165
0.158643 0.0306787 -0.885 0 199 255
0.160891 0.0308174 -0.889 0 255 254
-0.0550803 0.0330048 -1.01 131 0 0
-0.0524567 0.0324493 -0.993 140 0 0
-0.0505557 0.0323186 -0.989 143 0 0
-0.0482996 0.0319439 -0.978 156 0 0
-0.0466295 0.0319439 -0.978 156 0 0
-0.0445456 0.03165 -0.969 168 0 0
-0.0420941 0.031062 -0.951 206 0 0
-0.0398318 0.0305721 -0.936 255 11 0
-0.0382334 0.0305721 -0.936 255 11 0
-0.0362436 0.0302455 -0.926 255 67 0
-0.0346249 0.0302128 -0.925 255 73 0
-0.0330096 0.0301801 -0.924 255 80 0
-0.0314317 0.0301801 -0.924 255 80 0
-0.0298538 0.0301801 -0.924 255 80 0
-0.0280923 0.0299842 -0.918 255 123 0
-0.0264668 0.0299188 -0.916 255 140 0
-0.0248482 0.0298535 -0.914 255 162 0
-0.0232504 0.0298061 -0.913 255 172 0
-0.0216683 0.0297735 -0.912 255 184 0
-0.0200897 0.0297408 -0.911 255 197 0
-0.018433 0.0295776 -0.906 255 253 0
-0.0168121 0.029447 -0.902 195 255 58
-0.0152894 0.0294797 -0.903 212 255 41
-0.0137177 0.0294144 -0.901 178 255 75
-0.0121663 0.0293817 -0.9 162 255 91
-0.0106066 0.0293164 -0.898 129 255 124
-0.00905361 0.0292511 -0.896 101 255 152
-0.00758308 0.0294797 -0.903 212 255 41
-0.00603511 0.029447 -0.902 195 255 58
-0.00452545 0.0296429 -0.908 255 234 0
-0.0029822 0.0297082 -0.91 255 210 0
-0.00142741 0.0296755 -0.909 255 223 0
0.000124373 0.0297408 -0.911 255 197 0
0.00168299 0.0298061 -0.913 255 172 0
0.00323778 0.0297735 -0.912 255 184 0
0.00478915 0.0297408 -0.911 255 197 0
0.006358 0.0298061 -0.913 255 172 0
0.00790767 0.0297735 -0.912 255 184 0
0.00943317 0.0296755 -0.909 255 223 0
0.0109605 0.0296103 -0.907 255 244 0
0.0125362 0.0296755 -0.909 255 223 0
0.0141342 0.0297735 -0.912 255 184 0
0.0156564 0.0297082 -0.91 255 210 0
0.017134 0.0295776 -0.906 255 253 0
0.018701 0.0296103 -0.907 255 244 0
0.0202268 0.0295776 -0.906 255 253 0
0.0217251 0.0295123 -0.904 229 255 24
0.0231394 0.0293491 -0.899 145 255 108
0.024686 0.0293636 -0.899 145 255 108
0.0263087 0.0294616 -0.902 195 255 58
0.0278182 0.0294289 -0.901 178 255 75
0.0291939 0.0292656 -0.896 101 255 152
0.0308611 0.0293962 -0.9 162 255 91
0.0322541 0.0292656 -0.896 101 255 152
0.0337464 0.0292329 -0.895 88 255 165
0.035196 0.0291676 -0.893 61 255 192
0.036762 0.0292003 -0.894 75 255 178
0.0383315 0.0292329 -0.895 88 255 165
0.039949 0.0292983 -0.897 114 255 139
0.0414808 0.0292983 -0.897 114 255 139
0.0429646 0.0292656 -0.896 101 255 152
0.0444947 0.0292656 -0.896 101 255 152
0.046098 0.0293122 -0.897 114 255 139
0.0476305 0.0293122 -0.897 114 255 139
0.0492179 0.0293449 -0.898 129 255 124
0.0507521 0.0293449 -0.898 129 255 124
0.0522863 0.0293449 -0.898 129 255 124
0.0538205 0.0293449 -0.898 129 255 124
0.0552931 0.0293122 -0.897 114 255 139
0.0568256 0.0293122 -0.897 114 255 139
0.0583581 0.0293122 -0.897 114 255 139
0.0599226 0.0293278 -0.897 114 255 139
0.0615245 0.0293605 -0.898 129 255 124
0.0630595 0.0293605 -0.898 129 255 124
0.0645945 0.0293605 -0.898 129 255 124
0.0661296 0.0293605 -0.898 129 255 124
0.0676646 0.0293605 -0.898 129 255 124
0.0694308 0.0294586 -0.901 178 255 75
0.0710837 0.0295054 -0.902 195 255 58
0.0727068 0.0295381 -0.903 212 255 41
0.0742511 0.0295381 -0.903 212 255 41
