ply
format ascii 1.0
comment Created by Open3D
element vertex 1613
property double x
property double y
property double z
end_header
-0.00481721 -0.325078 -0.922705
-0.0391055 -0.374404 -1.00051
-0.0169117 -0.317745 -0.940167
-0.0210646 -0.31591 -0.946601
-0.0227432 -0.313045 -0.952678
-0.0236294 -0.310999 -0.964983
-0.0201738 -0.309744 -0.974606
-0.0154195 -0.304331 -0.998359
-0.0158422 -0.300249 -1.02084
-0.0124662 -0.294661 -1.03858
-0.0122574 -0.289933 -1.05944
-0.00995132 -0.289284 -1.06303
-0.00244866 -0.290421 -1.06046
0.00310096 -0.293772 -1.05719
0.00329801 -0.292141 -1.05926
0.0271583 -0.300784 -1.0518
0.0355432 -0.30283 -1.0483
0.0388495 -0.303862 -1.04743
-0.00997558 -0.294359 -1.05523
0.0575716 -0.308307 -1.04819
0.0605771 -0.308918 -1.05059
-0.035536 -0.373789 -0.996026
-0.0136781 -0.317597 -0.936313
-0.0156786 -0.315503 -0.942802
-0.0186318 -0.306756 -0.981843
-0.0137678 -0.304285 -0.989886
-0.0136188 -0.304526 -0.993877
-0.0150847 -0.299906 -1.014
-0.011853 -0.298115 -1.01655
-0.0147469 -0.294723 -1.02687
-0.0133617 -0.290081 -1.0528
-0.013679 -0.287152 -1.05597
-0.0184284 -0.283682 -1.06532
-0.00482535 -0.286898 -1.06508
0.0121352 -0.293256 -1.05619
0.0427449 -0.304869 -1.04717
0.0466151 -0.305311 -1.04926
0.0501685 -0.304017 -1.05048
0.0671836 -0.309485 -1.05116
0.0708122 -0.309679 -1.05408
-0.00852153 -0.318394 -0.930163
0.00788713 -0.344623 -1.03857
-0.0199463 -0.311041 -0.954059
-0.0198529 -0.309831 -0.960578
0.0650266 -0.372006 -1.04787
-0.0169507 -0.306989 -0.967067
-0.0189889 -0.354778 -1.00241
-0.0133043 -0.303963 -0.982215
-0.0128975 -0.301651 -0.996443
-0.01431 -0.299299 -0.999699
-0.0123267 -0.300964 -1.01017
-0.0126437 -0.294395 -1.0251
-0.0105637 -0.28976 -1.04993
-0.0168407 -0.283753 -1.06409
-0.00832909 -0.28412 -1.06856
0.0240044 -0.294863 -1.05483
0.0331602 -0.300423 -1.04828
0.0532857 -0.305741 -1.04872
-0.00215181 -0.320072 -0.922418
-0.0171896 -0.310226 -0.949692
-0.0176542 -0.307435 -0.96133
-0.0156357 -0.305563 -0.971248
-0.0126348 -0.297194 -1.00279
-0.0120075 -0.294173 -1.01734
-0.0115281 -0.29298 -1.02103
-0.0153863 -0.283635 -1.05697
-0.00745406 -0.283433 -1.06657
-0.0114267 -0.279835 -1.07385
0.00530502 -0.286301 -1.06401
0.0213808 -0.294905 -1.05327
0.0366328 -0.299957 -1.04646
0.0399412 -0.30038 -1.04809
0.0433878 -0.299545 -1.04766
0.0578685 -0.304724 -1.04695
0.0602911 -0.305701 -1.04948
-0.014801 -0.311834 -0.943229
-0.0173916 -0.307465 -0.954421
0.0530797 -0.372177 -1.05783
-0.0162934 -0.306134 -0.964127
-0.0114423 -0.301124 -0.988351
-0.0121605 -0.295033 -1.00998
-0.0132832 -0.289096 -1.02771
-0.0135757 -0.289116 -1.03196
-0.0130031 -0.28947 -1.03893
-0.0141264 -0.28479 -1.05112
-0.00679621 -0.280747 -1.07147
0.000566517 -0.28331 -1.06717
0.107566 -0.384465 -1.03178
0.0148778 -0.289855 -1.05915
0.022621 -0.290784 -1.05614
0.0300363 -0.294311 -1.05241
0.0483604 -0.350673 -1.04689
0.0227834 -0.0485425 -1.06527
0.0859671 -0.0254947 -1.06834
-0.0351419 -0.373406 -1.01136
-0.0239979 -0.36978 -1.01496
0.131509 -0.0562754 -1.05809
-0.0366791 -0.0454927 -1.03742
0.0388803 -0.0494834 -1.07123
0.0484924 -0.0493965 -1.07479
0.0599383 -0.163751 -0.952631
0.0554598 -0.182037 -0.982594
-0.0576942 -0.0329499 -1.02541
0.0529333 -0.0250472 -1.07056
0.135467 -0.158044 -1.11607
0.0708925 -0.0491775 -1.08589
0.138911 0.00373923 -1.08557
-0.0504672 0.159851 -1.03958
0.0749735 -0.0507147 -1.08282
0.0917851 -0.0507462 -1.07874
-0.0609597 0.114247 -0.95843
0.0285974 -0.0595862 -1.07065
0.122564 -0.0524609 -1.06383
0.0908864 0.105279 -1.11803
0.151948 -0.0561608 -1.05752
0.0760371 -0.270766 -1.06386
0.15942 -0.0568903 -1.05994
-0.0740692 0.0569319 -1.045
0.168153 -0.131423 -1.08366
0.16267 -0.0565529 -1.06124
-0.0640541 0.039201 -1.01618
0.14019 0.142938 -1.08216
0.0804957 -0.0502146 -1.08433
0.134567 -0.0518288 -1.05607
0.0857528 0.106792 -1.12059
-0.0186704 0.136267 -1.109
-0.0584598 -0.0427369 -1.01345
-0.00184801 -0.25457 -1.06912
-0.0638835 -0.393463 -1.0188
-0.0557842 -0.0443221 -1.01503
-0.024812 0.0160643 -1.07511
-0.0540284 -0.0444999 -1.01865
0.108004 -0.120955 -1.0812
-0.0251642 -0.378452 -1.03128
-0.00593472 -0.257551 -1.04576
-0.0476282 -0.042743 -1.03586
0.068428 -0.311682 -1.05662
0.0156388 -0.234031 -0.98106
-0.00150209 -0.250331 -0.949564
0.138312 0.0947036 -1.13276
0.0296202 -0.0453853 -1.07173
0.107164 -0.0477846 -1.07223
0.14017 -0.144072 -1.09138
0.117275 -0.0503363 -1.06597
0.0519181 -0.344582 -1.04928
0.011545 -0.0269353 -1.08219
0.0940596 0.105652 -1.11554
0.130702 -0.0497061 -1.0592
0.155774 -0.0518602 -1.05997
0.000260189 -0.260208 -1.07473
0.15961 -0.0519285 -1.06249
0.0281705 -0.0351511 -1.07086
0.142596 -0.225208 -1.09578
-0.0651091 -0.042502 -0.985052
0.011082 0.106409 -1.13439
-0.060218 -0.0454245 -0.983962
-0.0162259 0.137205 -1.10893
-0.0251582 -0.0404637 -1.05523
0.0551473 -0.349132 -1.04629
0.0248258 -0.0438831 -1.06929
0.0224567 -0.382217 -1.07184
0.0309799 -0.0437118 -1.07075
0.0343519 -0.044424 -1.07214
0.0398423 -0.0441164 -1.06996
0.036334 -0.214313 -1.01668
0.045733 -0.0444751 -1.0749
-0.0742561 0.0662016 -1.04106
0.0542513 -0.180123 -1.027
0.0521255 -0.0446707 -1.07718
0.067302 -0.0457782 -1.07705
-0.0132883 0.131098 -1.1122
0.0282975 -0.105593 -1.02407
0.143179 -0.102427 -1.06083
0.0734623 -0.38625 -1.07856
0.162479 -0.0512979 -1.06076
-0.0283264 -0.388642 -1.06097
-0.0547304 -0.0403351 -1.00429
-0.056594 -0.0398576 -1.02533
-0.0869602 0.0292322 -0.977464
0.0497647 -0.0415058 -1.07465
-0.0666894 -0.00638393 -0.989441
-0.0751811 0.0692504 -1.03714
0.134602 -0.0466425 -1.05594
0.024474 -0.0784805 -1.03494
-0.0630367 -0.397086 -1.01584
-0.0569515 -0.03939 -1.01572
0.130749 -0.0921586 -1.06636
-0.0457972 -0.0390238 -1.04026
0.0673982 0.126343 -1.13121
-0.0470508 -0.0380721 -1.04277
-0.0386682 0.0508936 -1.07415
0.089925 -0.185048 -1.08445
-0.0176782 -0.0389311 -1.06173
-0.0172455 -0.335818 -0.934661
0.0157339 -0.232509 -0.984699
-0.013542 -0.038112 -1.0636
-0.0104171 -0.0398654 -1.06306
0.00716102 -0.0383923 -1.06512
0.0251109 -0.0397621 -1.07001
0.112828 -0.0591546 -1.06981
0.112462 -0.0438598 -1.06703
-0.0028134 0.13685 -1.11584
-0.0659982 -0.0388384 -0.984496
-0.0642065 -0.0401915 -0.989737
-0.0272079 -0.0358576 -1.05404
-0.0100892 -0.0361212 -1.06379
-0.0804792 0.11109 -0.985814
0.0141713 -0.0385136 -1.06534
0.0388449 -0.0395701 -1.07099
0.0279823 0.0262015 -1.13595
-0.084713 0.107534 -0.988747
0.0635699 -0.0401828 -1.08185
0.0653684 -0.0384349 -1.08631
0.085602 -0.0404889 -1.08066
0.152655 -0.0449176 -1.06204
-0.0673369 -0.010455 -0.957311
-0.0595787 -0.385201 -1.00753
-0.0512544 -0.0685567 -1.00495
0.0855948 -0.278393 -1.05887
0.167943 -0.0447806 -1.05576
-0.0777082 0.133668 -1.04826
-0.00718128 -0.0353604 -1.06628
0.0776448 -0.268682 -1.06688
0.00797023 -0.274326 -1.07247
0.0748401 -0.0403797 -1.08424
0.0800028 -0.0397135 -1.08276
-0.0286972 -0.334421 -0.978827
0.0135973 -0.0449146 -1.05935
0.160803 -0.127487 -1.08267
0.109154 -0.0405556 -1.0683
0.160461 -0.0424975 -1.05947
-0.0144769 0.0264839 -1.09283
0.128715 0.0650797 -1.1216
-0.0646932 -0.0344559 -0.989529
-0.0197276 -0.0312259 -1.0616
-0.0597113 -0.0351246 -1.01096
-0.0608064 -0.0348928 -1.01461
0.0472675 -0.0316297 -1.07894
-0.0450009 -0.0344845 -1.04572
-0.0312892 -0.0341563 -1.05393
0.156541 -0.104857 -1.05672
0.0519951 -0.378161 -1.06696
0.067442 -0.181129 -0.887679
-0.0263851 -0.0340773 -1.05679
-0.00620348 -0.370364 -1.03164
0.142406 0.00453999 -1.08531
-0.0972607 0.0942973 -1.01933
0.00220902 -0.033081 -1.07421
0.0705571 -0.177752 -0.935012
0.0605912 -0.0361458 -1.07988
-0.0466564 0.106103 -1.10268
0.0655203 -0.0357504 -1.08686
0.113405 -0.0399807 -1.06692
0.149015 -0.0418997 -1.06082
-0.0627593 -0.0335921 -0.977133
0.0169961 -0.0224727 -1.08336
-0.0431486 0.131576 -1.08537
0.110202 -0.272201 -1.05889
-0.0603851 -0.0342366 -0.981754
-0.0203667 0.136744 -1.10724
-0.055677 -0.0347247 -0.991646
0.170669 -0.0311312 -1.04664
0.00985935 0.142209 -1.11809
-0.0421824 -0.03106 -1.04564
0.0323389 -0.0345904 -1.06997
0.0794094 -0.0353346 -1.08057
0.0969191 -0.0363876 -1.07423
-0.0208102 -0.326971 -1.02836
-0.0290457 -0.32448 -1.02051
-0.0207297 0.140819 -1.10472
-0.000255169 -0.0308818 -1.07275
0.0208647 -0.227336 -0.906524
-0.0181633 -0.360929 -1.00059
0.0389855 0.0765258 -1.15165
0.0732139 -0.0340931 -1.08373
0.096186 -0.0338518 -1.07483
0.154932 -0.0370075 -1.05934
0.0847523 -0.00589905 -1.09375
-0.0174589 0.0316429 -1.09451
-0.0583869 -0.0311139 -0.982994
0.0740743 -0.175701 -0.891465
0.0275554 -0.226349 -0.970112
-0.0596261 -0.0298013 -0.993164
0.132895 -0.160467 -1.11755
0.112525 -0.386484 -1.02978
-0.0576004 -0.0281131 -1.0311
-0.0488284 -0.379507 -0.975814
-0.0500458 -0.0301488 -1.03703
0.0137445 -0.0533082 -1.05659
0.133 0.132484 -1.10166
0.00608103 0.139723 -1.12098
-0.0461328 -0.0291165 -1.04743
-0.0135311 -0.0295059 -1.06578
0.0105809 -0.36606 -1.0476
0.0182594 -0.0292634 -1.07052
0.0643253 -0.0311633 -1.08716
0.1268 -0.036198 -1.05877
0.0631905 -0.124836 -1.06627
0.132035 -0.0350063 -1.05723
0.066025 -0.124596 -1.0665
0.135168 -0.0354008 -1.0576
0.168896 0.131779 -1.10851
0.122939 0.0693629 -1.12133
0.201803 -0.100075 -1.0436
0.0699617 -0.129803 -1.0683
0.0248784 -0.253912 -1.08514
0.167919 -0.0361494 -1.05115
-0.0513696 -0.0310277 -0.956472
0.0150585 0.102037 -1.13462
-0.00791446 -0.337498 -1.0348
-0.0632137 -0.0296664 -1.00957
-0.0654661 -0.0270047 -1.01578
-0.0619322 -0.0298773 -1.01437
-0.0582373 -0.0273813 -1.01319
-0.0596717 -0.0301425 -1.01857
0.0328788 -0.0217516 -1.076
-0.0604402 -0.0281331 -1.02186
-0.0620148 -0.0349591 -0.987039
-0.0129604 -0.02654 -1.06986
-0.0615265 -0.0039199 -1.02747
-0.00307311 -0.027794 -1.07475
0.00108148 -0.0275918 -1.078
0.0270484 -0.0299266 -1.07241
0.0495258 -0.234517 -1.09526
0.0326181 -0.0295412 -1.07009
0.0372864 -0.0296878 -1.06931
0.0496256 -0.354237 -1.0422
0.0426562 -0.0307101 -1.06726
0.138368 -0.0328657 -1.05938
-0.0406079 0.111424 -1.10204
0.0249141 0.0215494 -1.13194
-0.0632559 -0.0255855 -1.01514
-0.00694425 -0.0250416 -1.07457
0.0319197 -0.02661 -1.07158
0.00101931 0.00228141 -1.07831
0.0529026 -0.0273989 -1.07168
0.136335 -0.155787 -1.11342
0.0531928 -0.0294387 -1.07545
0.11154 -0.169181 -0.858048
0.0323011 -0.0249773 -1.07335
-0.0234102 0.138256 -1.10405
0.121461 -0.0299056 -1.06005
-0.0293247 -0.0296633 -1.05406
-0.0491263 0.0313299 -1.06456
-0.0618543 -0.0253854 -0.992449
-0.0231645 0.0941245 -1.1226
-0.0623257 -0.0247906 -0.998838
0.17858 -0.190299 -1.12167
0.0655442 -0.394418 -1.09317
-0.0647867 -0.0242453 -1.00945
0.153185 -0.0615279 -1.05658
-0.0647242 -0.0235132 -1.01643
-0.0659205 0.045085 -1.01672
0.0625316 -0.110309 -1.06815
0.0268627 -0.482982 -0.797667
-0.0464556 -0.0244074 -1.04805
0.0567264 -0.0320622 -1.07792
-0.0311673 -0.0235619 -1.06034
0.0429222 0.0943622 -1.14939
0.0738529 -0.347466 -1.04756
-0.0125064 -0.0234801 -1.07075
0.000870748 -0.0236318 -1.07863
-0.0676262 0.102047 -1.06771
0.000837726 -0.0218906 -1.08392
-0.0658802 -0.0255196 -0.983531
-0.0330239 0.155644 -1.06845
0.00869757 -0.0221253 -1.08485
0.147162 -0.1193 -1.07122
0.0101402 -0.0237989 -1.08265
-0.0845368 0.125362 -1.00875
0.0257297 -0.0229331 -1.07944
0.132521 -0.132274 -1.08097
0.0464068 -0.359787 -1.04338
0.0354667 -0.0256791 -1.07185
0.0388053 -0.0253089 -1.07109
0.0880996 -0.0818022 -1.08384
0.0751219 -0.11496 -1.07072
0.124313 -0.0272715 -1.05764
-0.0100609 -0.0205063 -1.07122
0.0578742 -0.149655 -1.06111
-0.00371207 -0.0204616 -1.07775
-0.057217 -0.0506056 -0.987699
0.0583117 -0.0241095 -1.07858
0.0317882 -0.0857737 -1.02042
0.0250795 0.081569 -1.14578
0.0776697 -0.0232919 -1.07552
0.0806634 -0.0253563 -1.07724
-0.0105735 -0.000523075 -1.0801
0.141827 -0.0268539 -1.06203
-0.046116 -0.0192197 -1.04839
-0.0665243 -0.0259707 -0.975306
0.104718 -0.0228433 -1.06747
-0.00748413 0.00565068 -1.07967
-0.0448429 0.0367908 -1.06681
-0.0278461 -0.0443909 -1.05079
-0.01001 -0.385696 -1.07096
0.053942 -0.350931 -1.04511
0.0807016 -0.250149 -1.08379
-0.018565 -0.0347229 -1.0623
0.125187 -0.023751 -1.0613
0.0247556 0.0715626 -1.15056
0.132722 -0.0236561 -1.0705
0.0968048 -0.228169 -1.10327
-0.0114599 -0.276375 -0.981791
-0.0680521 -0.0209542 -0.973667
0.00912829 -0.483997 -0.809348
-0.0570666 0.141321 -0.965877
-0.0249812 0.0771597 -1.12415
0.0905995 -0.222643 -1.10819
-0.0653806 -0.0193729 -1.00294
0.0281124 -0.0853492 -1.03135
-0.0469917 0.10282 -1.101
0.0354913 0.0959976 -1.14743
-0.0473052 -0.018422 -1.04857
-0.0404662 0.147875 -1.06223
0.0544941 -0.000957039 -1.10981
0.0326571 -0.220077 -1.0204
-0.0444236 -0.376265 -0.951047
0.0356265 -0.0196178 -1.07948
0.133772 0.135253 -1.09471
0.0531622 -0.0204218 -1.07675
0.0924987 -0.0214387 -1.07243
0.0424661 -0.165702 -1.01081
-0.0151477 -0.0860586 -0.998433
0.148749 -0.0228504 -1.0597
0.0581232 0.136184 -1.13383
-0.0655074 -0.0198755 -0.983075
-0.0461825 0.0175084 -1.06294
-0.0837521 0.0756656 -1.01322
0.139642 -0.0745181 -1.05772
-0.0646293 -0.0172272 -0.991913
-0.0235916 -0.30689 -1.02916
0.0524578 -0.175339 -1.02917
-0.0567873 -0.0160639 -1.03011
-0.0273813 -0.0910443 -0.986708
-0.0214851 -0.379422 -0.930261
0.0300812 -0.016536 -1.08803
-0.0311044 0.0674116 -1.12282
0.0263071 -0.100319 -1.02681
0.0710499 -0.0198932 -1.07936
-0.00939018 -0.0188802 -1.07455
0.0319015 -0.00395082 -1.09668
0.0639602 -0.0352887 -1.08074
0.145087 -0.0910687 -1.0574
-0.0676373 -0.0250213 -0.980089
0.11053 -0.0206296 -1.06477
0.163593 -0.0219881 -1.04768
0.0498488 -0.0157737 -1.0818
0.194042 0.0806606 -1.11164
-0.0409791 0.0115277 -1.06286
-0.0185782 -0.365559 -0.954351
0.12467 -0.0205379 -1.06354
0.127914 -0.0200393 -1.06563
-0.0243522 -0.0832609 -1.00394
0.0542412 0.141473 -1.13045
-0.0668111 -0.0149565 -1.01066
0.0308705 -0.230221 -0.878868
-0.062664 -0.0148232 -1.02154
0.160402 0.0888452 -1.13082
-0.00155031 0.170157 -1.09539
-0.0606242 -0.0138205 -1.02609
-0.0155013 -0.0680074 -1.03339
0.070704 -0.0717207 -1.07565
-0.0590765 -0.0144011 -1.03242
-0.0485735 -0.0144844 -1.05063
-0.0320059 -0.0141526 -1.06117
-0.00999065 -0.367713 -0.943521
0.0148501 0.146404 -1.11915
0.18501 -0.115604 -1.05696
0.0643497 -0.207901 -1.10652
-0.0146336 -0.0142477 -1.07253
-0.0629874 -0.0187514 -0.985898
-0.0103166 -0.0142621 -1.0757
0.0437859 0.0110967 -1.1307
0.0708369 -0.0263924 -1.07289
0.0432604 -0.116217 -0.961779
-0.00636069 -0.014289 -1.07818
0.144155 -0.12956 -1.07994
-0.0525134 -0.0438998 -1.025
-0.0189566 -0.348969 -0.968506
-0.0665726 0.0421541 -1.02031
0.0433565 -0.0144027 -1.08584
-0.0417248 -0.378437 -0.946716
0.124907 -0.396925 -1.03712
0.0544802 -0.0153365 -1.08297
0.150375 -0.0177423 -1.05834
-0.0143501 -0.0102762 -1.07275
-0.066358 -0.394296 -0.994612
-0.0591059 -0.0138662 -0.9884
-0.0150752 -0.32911 -1.0329
0.139357 0.0849256 -1.132
-0.0615853 -0.015082 -0.993544
0.148376 -0.225601 -1.09456
-0.0520051 -0.0139747 -1.0462
-0.0634346 -0.0138661 -1.00022
0.0810878 -0.365445 -1.03046
-0.0621136 0.0199377 -1.00839
0.115757 -0.394542 -1.04629
-0.0338356 -0.377114 -0.942594
-0.0130114 -0.303387 -0.963829
-0.05179 -0.37809 -0.956441
-0.00602171 -0.299811 -0.952724
0.0320245 -0.0117022 -1.09562
0.118765 -0.396213 -1.0437
-0.0378808 -0.377432 -0.942985
0.0279049 -0.0180995 -1.08584
0.0496285 -0.0129313 -1.08795
0.0583271 -0.0126989 -1.08589
-0.0343097 -0.373026 -0.954181
-0.0227573 -0.310412 -0.985404
0.06333 -0.0140818 -1.08659
-0.0295186 -0.370941 -0.951152
0.0681791 -0.0145917 -1.08509
-0.0421428 -0.38434 -1.03904
0.0715604 -0.013013 -1.08709
0.108693 -0.0154249 -1.06846
0.153949 -0.0161212 -1.05766
0.0201808 -0.231137 -0.977389
-0.0604133 -0.0114413 -0.981709
0.0538414 -0.188373 -0.930729
-0.0858206 0.0192164 -0.981114
0.03338 -0.21604 -0.957111
0.0285299 -0.0100073 -1.09771
-0.0519397 -0.415311 -0.930199
0.0331411 -0.00363397 -1.10991
0.03819 0.102922 -1.13778
0.0232805 -0.0146154 -1.09317
0.0496346 -0.0107899 -1.08932
0.0790498 -0.0115658 -1.08805
-0.0787267 0.124665 -1.02093
0.0979861 -0.0123724 -1.07743
0.104511 -0.012637 -1.07411
-0.00716865 0.00807773 -1.08548
0.143769 0.118581 -1.12469
-0.0166425 -0.00391143 -1.07411
0.120595 -0.0145322 -1.06669
0.054516 -0.365133 -1.04472
0.128166 -0.0151297 -1.06758
-0.070099 -0.0540425 -0.99608
-0.0643545 -0.0243322 -1.00774
0.133254 -0.0134185 -1.07215
-0.0618938 -0.0107157 -0.952874
0.0933519 -0.28179 -1.05548
-0.065134 -0.0103889 -0.961014
0.00899369 0.158146 -1.1052
-0.0638193 -0.0106069 -1.00546
0.15148 -0.156609 -1.12283
-0.0636699 -0.00850195 -1.02422
-0.0615101 0.154087 -1.01762
-0.032369 -0.0100898 -1.06226
-0.00692714 -0.286137 -0.946564
-0.0183795 -0.00973131 -1.06876
0.103981 0.0576243 -1.13018
0.0356428 0.0669922 -1.1539
-0.101736 0.0807849 -1.01803
0.0138383 -0.00961784 -1.09379
0.0480887 -0.224652 -1.09764
-0.0270118 -0.38635 -1.06026
-0.0296067 -0.37729 -1.02523
0.0200757 -0.00837577 -1.09397
0.0316756 -0.009366 -1.0959
0.128177 -0.0116724 -1.06974
-0.0450424 0.0729494 -1.09105
0.0399933 -0.203045 -0.909293
-0.0726128 -0.00869451 -0.958999
0.0895251 -0.279565 -1.05769
-0.0718973 -0.00844003 -0.968345
-0.0735377 -0.00811481 -0.978133
-0.0586249 -0.0395185 -1.01195
0.0521205 -0.034002 -1.07779
-0.0681044 -0.00978597 -0.978758
0.0866683 -0.139545 -1.07346
0.0679158 -0.373915 -1.05187
-0.0621758 -0.00953674 -0.991321
-0.0141907 -0.0702503 -1.03086
0.00581175 -0.242061 -0.91734
-0.0641661 -0.00932435 -0.996803
-0.0138211 -0.334727 -1.03273
0.139155 0.0797325 -1.13148
-0.0631024 -0.00975836 -1.00019
0.0960589 -0.15917 -1.07443
-0.0331283 0.147428 -1.07507
0.0907295 -0.124627 -1.07628
0.0503809 -0.226314 -1.0999
0.139282 0.0751414 -1.13008
-0.000936172 -0.250126 -0.984895
-0.0609858 -0.00793699 -1.0284
0.0386882 -0.20705 -0.930217
-0.0602772 -0.00833927 -1.03237
0.127585 -0.0512043 -1.06035
-0.0447791 0.116146 -1.09539
-0.0491641 -0.00877117 -1.05138
0.0549342 -0.378246 -1.06999
-0.0233743 -0.00910694 -1.06718
-0.0112281 -0.00948744 -1.0763
-0.0073224 -0.00885502 -1.07928
-0.0429133 0.0217386 -1.06665
-0.00375718 -0.334244 -1.04305
0.00650073 -0.00902971 -1.08683
0.00991314 -0.00913425 -1.09023
0.0177138 -0.00693897 -1.08886
0.0566656 -0.244614 -1.09346
0.182075 0.0568313 -1.11588
-0.0246929 -0.386119 -1.05786
0.0246831 -0.00755194 -1.0908
0.0340912 -0.129505 -1.01394
0.0293776 -0.00785932 -1.09277
0.0324616 -0.00773303 -1.09068
-0.0636583 -0.391015 -0.995971
-0.0564782 -0.0658193 -0.995412
0.0808477 -0.00869702 -1.09125
0.10435 -0.010046 -1.07745
0.149974 0.119947 -1.12099
-0.0789307 0.0555576 -1.03192
0.0383465 -0.361244 -1.04194
0.0385473 -0.0837508 -1.06588
0.140014 -0.0101488 -1.07327
0.00988184 -0.487329 -0.819566
0.156285 -0.0117226 -1.06136
0.0781067 -0.120201 -1.07335
-0.0711036 -0.00637575 -0.986329
-0.0207779 -0.00519479 -1.06686
-0.0487147 -0.383744 -1.02442
-0.0401406 -0.0581913 -1.02133
0.0367655 -0.00576986 -1.09026
0.0358355 -0.00547772 -1.10042
0.0776786 -0.115667 -1.07276
-0.0652391 -0.0148477 -0.970145
0.0415178 -0.155262 -1.01125
0.0366397 -0.00531847 -1.10687
-0.0657035 -0.0144301 -1.01772
-0.0825841 0.120685 -1.00057
0.0953229 -0.0071389 -1.08601
0.134117 -0.00824429 -1.07575
-0.0564101 0.0316992 -0.998805
0.158921 -0.00913547 -1.06255
0.0469796 0.116752 -1.13083
-0.0805359 -0.00591606 -0.96798
-0.0723072 -0.00587866 -0.981052
0.0717562 -0.29453 -1.04872
-0.0691994 -0.00531497 -0.992565
0.121971 -0.18393 -1.12818
-0.0276914 -0.00447766 -1.06575
-0.00283723 -0.00451969 -1.08163
0.0350114 -0.00508061 -1.08556
-0.00644636 -0.0390875 -1.0653
0.0333052 -0.00414722 -1.09023
0.125327 0.0207479 -1.10166
0.000778948 0.0527027 -1.13939
0.157793 -0.00729063 -1.06564
0.0628091 -0.404166 -1.0906
0.0394337 -0.00789568 -1.09068
-0.0905969 -0.00321195 -0.974761
-0.0637585 -0.0252912 -0.985889
-0.0139732 -0.0190138 -1.07216
-0.000132393 -0.0599259 -1.04501
-0.0860953 -0.00324827 -0.976528
-0.0827054 0.105894 -1.01935
-0.0542754 -0.0435918 -1.0221
0.103011 -0.118553 -1.08315
-0.0798013 -0.00321683 -0.982293
-0.0723645 -0.00427392 -0.989476
-0.0712729 -0.00304599 -0.995143
-0.0579655 -0.00388405 -1.03856
0.111681 0.11825 -1.11606
0.104066 -0.20398 -1.11916
-0.0454412 0.131569 -1.07995
-0.0267778 -0.00234895 -1.07028
-0.05925 -0.385688 -1.0007
-0.0125445 -0.0838639 -1.00751
-0.0133838 -0.00287689 -1.0744
0.038737 -0.216082 -1.05856
0.000420608 -0.00278305 -1.07857
0.00763822 -0.00352202 -1.07993
-0.0211638 -0.364891 -1.00384
0.013342 -0.00257777 -1.07608
-0.0693826 -0.0126592 -0.985433
0.0771367 0.094203 -1.13294
0.0103569 -0.390261 -1.09123
0.0152347 -0.00358002 -1.07854
-0.0309914 0.0265003 -1.07495
0.10745 -0.17976 -1.10184
0.0987782 0.112398 -1.11588
0.0247773 -0.00419367 -1.08188
0.148352 -0.0508152 -1.05588
0.0610179 -0.184022 -0.93046
0.0661148 -0.19841 -1.05489
-0.0624883 -0.385543 -1.01948
0.0361925 -0.00370829 -1.07919
0.0169514 -0.373581 -1.05297
0.0297218 -0.00459868 -1.08512
0.00293208 0.0519821 -1.13957
0.0255651 -0.00197624 -1.10948
0.0295336 -0.00324461 -1.1075
0.0364509 -0.0025827 -1.11377
0.0215464 0.0567997 -1.1482
0.0745301 -0.00453435 -1.09705
0.0401615 -0.205825 -0.947972
0.00069776 -0.339861 -1.03944
0.124583 -0.00467448 -1.07586
0.141175 -0.0556908 -1.0551
0.0205452 -0.0348857 -1.06946
0.134985 -0.00478478 -1.0794
-0.0604141 -0.406904 -0.944175
0.13792 -0.00571945 -1.07815
-0.0473361 0.155235 -1.04295
0.146003 -0.00510121 -1.07497
0.111414 -0.188249 -1.12421
-0.0779176 -0.00187979 -0.974856
-0.078155 -0.00177909 -0.978917
-0.0567281 -0.000754632 -1.03686
-0.0503214 -0.0642499 -1.01104
0.0703711 -0.101428 -1.07195
0.0265463 -0.00118214 -1.07958
-0.0568094 -0.0539655 -1.00156
0.0232078 -0.000557892 -1.10341
-0.00236716 -0.00882576 -1.08145
0.0741361 -0.125077 -1.07037
0.0237369 -0.000363863 -1.11209
-0.0707686 -0.0098496 -0.974579
0.0431936 0.10701 -1.1349
0.0961994 -0.0207268 -1.07251
0.0555526 -0.39453 -1.0914
0.128783 0.036482 -1.1083
0.0666311 -0.00131485 -1.10365
-0.0615852 -0.386596 -0.954283
-0.0247423 0.0117583 -1.0748
0.162659 -0.00389158 -1.06624
0.0640358 -0.382851 -1.07664
0.0168553 -0.358432 -1.03658
0.0458153 -0.0309144 -1.07598
0.0834135 -0.173377 -0.882342
-0.0867158 -0.000960419 -0.974738
-0.0628902 -0.000112484 -0.99459
-0.0467787 -0.389039 -1.04382
0.0677422 -0.00963238 -1.08999
0.0253134 -0.000115907 -1.09121
0.0493663 -0.155795 -1.03811
0.0455674 -0.201515 -1.00893
-0.0107584 -0.261443 -0.952832
0.0369497 -0.207274 -0.952369
0.0470668 -0.200933 -1.00663
0.124593 0.0257164 -1.10362
0.0582118 0.00055739 -1.11072
0.110565 -0.140433 -1.08374
-0.0588618 -0.0544275 -0.999531
0.0962748 -0.00128634 -1.09254
-0.0887164 0.00107817 -0.977997
-0.013206 -0.263985 -1.03047
0.0399769 0.0315208 -1.14503
-0.0860467 0.000948636 -0.979794
-0.0834236 -0.000458381 -0.978616
-0.0650235 0.00203919 -1.02104
-0.0634489 -0.0382455 -0.978008
0.146701 0.095195 -1.13277
-0.0573489 0.000517461 -1.04264
0.0546978 -0.140797 -1.05803
0.0161138 0.0103944 -1.11873
-0.0355688 0.00104495 -1.06483
0.00563769 0.120761 -1.12736
0.126864 -0.0909047 -1.06735
-0.0485455 -0.380801 -1.01696
0.00775253 0.00165884 -1.07784
-0.0722922 -0.00789401 -0.98659
-0.0691069 -0.00875069 -0.986309
0.0170982 0.00240999 -1.09559
0.0122924 0.00283633 -1.11216
0.129136 -0.0141601 -1.07224
0.0156319 0.0028078 -1.11321
0.0597726 -0.410455 -1.08894
0.0179758 0.00281362 -1.11515
0.0602772 -0.301895 -1.0479
0.0320958 0.00115119 -1.11826
0.045486 0.000936143 -1.11842
0.0638225 0.00205973 -1.11214
-0.0552402 -0.0550789 -0.992752
0.104611 0.000995446 -1.09101
0.115881 0.000675918 -1.08396
0.141464 -0.0014772 -1.0807
-0.0733452 0.00314528 -0.995202
-0.0649308 0.00326382 -1.00674
0.0060288 0.00376763 -1.07983
0.0106351 0.00416222 -1.10251
0.045259 -0.184276 -1.00997
0.0103404 0.0040684 -1.09767
0.0514327 -0.196054 -0.987992
0.0691118 0.00354349 -1.1118
0.0823821 0.0225191 -1.12917
0.0666802 -0.0286563 -1.07701
-0.059036 0.0247912 -1.02792
0.127803 0.00213036 -1.08183
-0.0306972 0.0980025 -1.11531
-0.0255512 -0.36642 -0.969814
0.0373167 -0.23476 -1.093
-0.00268386 -0.254311 -0.977197
0.147718 0.00186384 -1.08225
0.0461271 -0.0205959 -1.07669
0.076527 -0.00318261 -1.09955
-0.0183677 0.0046254 -1.07592
0.0317505 -0.103537 -0.977661
0.0618424 0.00372408 -1.11579
-0.0271438 -0.0296038 -1.05726
0.00661586 0.00565384 -1.09904
0.00718788 0.00542635 -1.10718
0.168586 -0.136687 -1.09002
0.120767 0.126001 -1.10794
0.0641888 -0.0306724 -1.08022
0.115961 -0.0849201 -1.07244
0.102695 -0.0168558 -1.07022
-0.0270493 -0.32398 -1.02255
0.125138 0.00330436 -1.08288
-0.0935399 0.0061575 -0.978608
-0.00315929 0.00529199 -1.08244
0.0465472 -0.205926 -0.966453
0.00326085 0.00629163 -1.10418
0.0599459 -0.0404938 -1.07878
-0.101869 0.0863858 -1.01857
0.0216472 -0.222474 -0.996931
-0.0123481 0.0917809 -1.13178
0.00836084 0.00398686 -1.09228
0.0924241 0.0043001 -1.10132
-0.0409359 -0.0737692 -0.967879
0.105374 0.00433215 -1.09456
-0.0204679 -0.351426 -0.990724
0.0298597 -0.228603 -1.07979
0.0396453 -0.295551 -1.05028
0.131776 0.00380079 -1.08403
0.135579 0.00420913 -1.08583
0.0953191 -0.0037665 -1.0902
-0.0604399 0.0200482 -0.996465
-0.0160703 -0.348799 -0.949215
9.96229e-05 0.0269842 -1.12632
0.139079 -0.146308 -1.09715
0.065123 0.0972254 -1.13555
-0.105585 0.00544995 -0.987763
0.068825 -0.227764 -1.10315
0.00747878 -0.284361 -1.0659
-0.0831739 0.00552224 -0.978617
0.0431341 -0.109773 -1.05964
-0.0661056 0.00554406 -0.996552
-0.0682525 0.00571122 -0.998691
0.0540633 -0.0901929 -1.06933
-0.0669568 0.0063395 -1.00599
-0.0665221 0.00670351 -1.00959
-0.00595751 0.121915 -1.11897
-0.0684728 0.00530006 -1.0148
0.0483307 -0.399197 -1.09139
0.114691 0.0387064 -1.11597
-0.0552507 -0.0189249 -1.03556
-0.0617733 0.00635975 -1.03461
-0.0605377 0.00691003 -1.04226
-0.0573963 0.00658827 -1.04487
-0.0410741 0.00631159 -1.06299
-0.0671492 -0.00349152 -1.02047
0.139411 -0.180205 -1.12982
-0.0190975 0.00705717 -1.07695
0.0295361 -0.101195 -0.982484
0.131666 0.0703604 -1.12469
-0.0019561 0.00845202 -1.10341
0.132296 -0.0221726 -1.06427
-0.0593941 0.0921966 -1.08282
0.130097 0.0706751 -1.12866
0.0557587 0.00627869 -1.1238
0.000844602 0.00825769 -1.1068
0.162992 -0.100888 -1.05419
0.00463906 -0.241877 -1.00157
0.0497694 -0.160068 -1.03854
0.00370654 0.00776646 -1.11034
0.0515843 -0.185693 -1.00122
0.0171195 0.00661795 -1.11737
0.0634049 -0.412575 -1.08916
0.0208955 0.00724415 -1.12131
0.162395 -0.141415 -1.10127
0.0434679 -0.477433 -0.786352
-0.0380194 -0.0148933 -1.05659
0.0328737 -0.226667 -0.879381
-0.00473892 -0.361929 -0.934025
0.0285579 0.00636221 -1.12202
0.0343545 0.00812122 -1.12826
0.180117 0.0499721 -1.11313
0.00885366 -0.246185 -1.06422
-0.0996075 0.0861537 -1.01646
0.110674 -0.144865 -1.084
-0.00185597 0.00820091 -1.09598
0.0176511 -0.286599 -1.06094
0.0421061 0.00889562 -1.13407
0.0479507 -0.214059 -1.07607
-0.0845965 -0.00189901 -0.969412
0.0594966 0.00856581 -1.12471
-0.0884148 6.45321e-05 -0.970872
0.0138275 0.0488259 -1.14386
0.103904 -0.208374 -1.11712
-0.00918087 -0.298448 -1.04906
0.021158 -0.00556606 -1.08566
-0.0192306 -0.309593 -1.03047
0.131189 0.00721357 -1.08659
0.126367 -0.241003 -1.08387
0.14441 0.00706995 -1.08586
-0.073539 0.0608569 -1.04772
0.164426 -0.133657 -1.0866
-0.00153594 -0.360534 -1.02632
0.0731329 -0.273753 -1.06311
0.0186185 -0.0132455 -1.09586
0.0872414 -0.164904 -1.07335
-0.0671652 -0.00435094 -1.00708
0.00903841 -0.378501 -1.06537
0.0208814 -0.0643759 -1.06286
0.0485085 -0.380961 -1.0759
0.0474136 -0.209499 -1.03383
0.0569572 -0.0797465 -1.0726
0.00172032 -0.249149 -1.0304
-0.000365363 0.0103646 -1.1075
0.143534 0.121294 -1.12077
0.11788 0.00910661 -1.09293
0.0203581 -0.00541483 -1.09058
0.127861 0.00810948 -1.08816
-0.00454237 -0.375655 -1.05071
0.00444763 -0.0593759 -1.04846
0.0843847 -0.38175 -1.05377
0.107012 -0.153689 -0.884957
-0.0164207 0.0108245 -1.07945
0.0272829 0.035599 -1.14259
-0.0909187 0.0741717 -1.00928
0.0194952 -0.230117 -0.99879
-0.00332815 0.0105795 -1.09546
0.0268345 -0.381092 -1.07517
0.036789 -0.0536707 -1.07201
-0.00402256 0.0119277 -1.11086
0.163977 -0.0873153 -1.05161
0.0226767 0.0119582 -1.12688
-0.0306032 -0.0794897 -1.00504
-0.0850566 0.019323 -0.974574
0.0307154 0.011391 -1.12656
0.0462654 -0.200596 -0.889466
0.0614552 0.0116861 -1.12806
0.0345938 -0.10296 -0.968364
0.0768909 0.0114476 -1.11956
0.117479 0.0107976 -1.09533
0.138632 -0.200359 -1.12057
-0.0637108 -0.0464777 -0.998109
0.0800145 -0.381524 -1.06003
0.102921 -0.154499 -0.890343
-0.0245035 -0.38833 -1.06459
0.0699883 -0.0290173 -1.08646
0.136328 0.00818521 -1.08726
0.157583 0.00948434 -1.08427
-0.0957207 0.0107675 -0.977649
-0.0950116 0.0108044 -0.980533
0.00395222 -0.0615845 -1.04198
-0.0813311 0.0809317 -1.01882
-0.0838198 0.0107042 -0.979859
-0.0823692 0.0107367 -0.983028
-0.0412553 0.0257007 -1.06631
0.0279273 -0.309064 -1.05387
0.13071 -0.14281 -1.09237
-0.0782275 0.0107004 -0.982749
0.0259184 -0.310639 -1.05479
0.0111038 -0.0142107 -1.08851
0.133537 -0.140666 -1.08899
-0.0638002 -0.00957478 -1.0222
-0.075649 0.0109097 -0.985398
-0.0679373 -0.009974 -1.01436
-0.0654306 0.0108865 -1.01711
0.130411 -0.0395168 -1.05714
-0.0530676 0.0114969 -1.054
-0.0493754 0.0113329 -1.05769
0.0035111 -0.0924153 -0.98124
0.0215085 -0.228294 -1.01636
-0.0462389 0.013056 -1.06302
-0.00463679 0.126304 -1.12665
-0.0372339 0.0117318 -1.06624
0.14534 -0.0750193 -1.05643
-0.0303464 0.0113133 -1.06858
-0.0530644 0.0312235 -1.06076
-0.0122119 0.0131046 -1.08371
-0.00872335 -0.286126 -0.960511
-0.0614431 -0.387201 -1.01429
-0.0548458 -0.0476551 -1.01159
0.138376 -0.000550546 -1.08204
0.0773572 -0.0555751 -1.07997
-0.00566279 0.0130677 -1.11236
0.0327605 0.0356578 -1.14608
-0.00948295 -0.291769 -0.960388
0.145627 -0.0546158 -1.05535
-0.0345401 0.0313173 -1.07269
0.066014 -0.17915 -0.926355
0.0106137 0.0134564 -1.12158
0.147788 -0.0571409 -1.05464
0.0155353 0.0126606 -1.12021
0.0632465 -0.409199 -1.09032
0.0213368 0.0119254 -1.12406
0.0401779 -0.0128618 -1.09041
0.140172 -0.150704 -1.10333
0.159006 0.0120747 -1.08637
-0.0632763 0.0140135 -1.00953
-0.0436714 0.165807 -1.02963
-0.0182414 -0.360289 -0.996894
-0.0493818 -0.079536 -0.988086
0.0134948 -0.308568 -1.05378
0.0356712 0.014939 -1.13155
0.100552 0.0143684 -1.11081
0.0212616 -0.484988 -0.798184
0.169404 0.0950105 -1.12888
0.025778 -0.222335 -1.01554
-0.0963253 0.0153946 -0.97975
-0.0952595 0.0154021 -0.980847
0.0439693 0.0862134 -1.14858
-0.0857828 0.0141289 -0.974136
-0.0808858 0.086229 -1.01851
0.0527265 -0.133497 -1.06199
-0.0682354 0.0154579 -0.998634
-0.0648555 0.0159035 -1.04375
0.00239703 -0.368989 -1.03782
-0.0582472 0.13135 -1.06531
0.0142846 -0.0792366 -1.02925
0.0104874 -0.0434566 -1.06081
-0.0532762 0.0147707 -1.05399
-0.02835 0.0324813 -1.07221
0.0182382 -0.00074368 -1.07568
0.132631 -0.14907 -1.09957
0.0111988 0.0109293 -1.11843
-0.0553071 -0.0321446 -0.980455
0.0421725 0.0881457 -1.15384
0.0280622 -0.0507293 -1.06024
-0.0752428 -0.00575342 -0.977737
0.0040848 0.015285 -1.11695
-0.0461427 0.164208 -1.0324
-0.0303392 -0.330349 -0.993519
0.03828 0.0153164 -1.13279
0.160128 -0.0854383 -1.04902
0.0405145 -0.218275 -1.07691
0.0270587 -0.225892 -1.04085
0.120231 0.0157865 -1.09944
-0.0599527 -0.389439 -0.971375
0.128886 0.0140099 -1.09262
-0.0160936 0.111031 -1.11513
-0.0894135 0.0165046 -0.978218
-0.081101 0.0863249 -1.01613
-0.0729492 0.015387 -0.989791
0.0773797 -0.0906003 -1.07595
-0.0695206 0.0156191 -0.992176
-0.0655729 0.0153697 -0.991327
-0.021774 0.00701043 -1.07262
0.125683 -0.0950319 -1.06842
-0.0638485 0.0156609 -1.02038
0.0351527 -0.329543 -1.05809
-0.0643388 0.0157661 -1.03064
0.0858019 0.103235 -1.12004
-0.0628744 0.0157973 -1.03431
-0.0652802 -0.00758694 -1.00242
-0.0662155 0.115431 -1.06643
-0.0628432 0.0158846 -1.04269
-0.0807265 0.0600265 -1.01593
-0.0596405 0.0174193 -1.04907
-0.0548465 0.0168351 -1.05608
-0.00317331 0.01662 -1.11548
-0.0282472 0.0160466 -1.07221
-0.012764 0.0269383 -1.09907
0.125019 -0.189361 -1.13252
0.0435031 -0.208447 -0.969211
-0.0155678 0.0172175 -1.0812
-0.0430259 -0.0246492 -1.05318
-0.012889 0.0161147 -1.08436
-0.0467343 0.0834127 -1.10429
0.0806159 -0.060944 -1.08408
-0.00700781 0.0160338 -1.09883
-0.00867834 0.0170385 -1.10303
0.000780079 0.0173338 -1.1208
0.0603077 -0.135279 -1.06363
0.157096 0.125284 -1.1204
0.147135 -0.198043 -1.12255
0.0148202 0.0175806 -1.12722
0.036926 -0.000532378 -1.11467
0.0356931 0.0173881 -1.1358
0.0055477 -0.378466 -1.06076
0.0901925 0.0919199 -1.13067
-0.0549603 0.0414912 -1.06192
0.00321332 -0.379017 -1.0646
0.0872833 0.0899968 -1.13492
0.0472303 0.0179805 -1.13762
0.0915631 -0.409846 -1.0793
-0.0577911 0.0444323 -1.03096
-0.00368988 -0.373473 -1.04367
0.00557825 -0.271832 -0.877128
0.0667793 0.0171163 -1.13265
0.166598 -0.0607772 -1.06303
0.0922465 0.0176932 -1.11938
0.0022436 -0.484229 -0.815187
0.166914 0.0947974 -1.13063
0.12554 0.0174114 -1.0984
-0.0876373 0.0653906 -1.00528
-0.0317213 -0.378627 -1.02995
-0.0254812 -0.0650057 -1.02703
0.0496108 -0.193778 -0.924288
-0.0344583 -0.029358 -1.05618
0.0682489 -0.0458016 -1.08349
0.131748 -0.0313422 -1.05682
0.0205719 0.000437412 -1.10066
0.162691 0.0172456 -1.09
-0.0783716 0.0184657 -0.986659
-0.0381436 0.0160347 -1.06744
0.170933 -0.173945 -1.12978
0.105767 -0.390388 -1.05023
-0.0639781 0.0187209 -1.02446
-0.0637831 0.018882 -1.04476
0.0314844 -0.135413 -1.00857
0.096776 -0.23653 -1.09489
-0.00926257 0.0192338 -1.09948
-0.0372759 -0.371734 -0.957786
0.0601068 0.01946 -1.13504
0.0962098 -0.405239 -1.07748
-0.0528827 -0.38358 -0.944003
0.0973567 0.0192664 -1.11741
0.00159601 -0.24919 -1.07335
-0.0597178 0.00534539 -1.03909
-0.0930699 0.0200075 -0.982955
-0.00945729 0.0197841 -1.10644
0.063341 -0.0260273 -1.07521
0.0263982 -0.0869708 -1.02619
0.0318945 0.0202325 -1.13467
0.0468286 0.0200041 -1.13857
-0.00114925 0.0076313 -1.0996
0.0569939 0.0210101 -1.13753
0.00137112 -0.249135 -1.01711
0.0688231 0.0202091 -1.13394
-0.0806808 0.00520292 -0.98286
0.0409174 -0.210111 -0.964686
-0.0503736 0.0130269 -1.05876
0.0257011 -0.22411 -1.01265
0.10815 -0.0454344 -1.0703
0.00708889 -0.242778 -0.970618
0.123384 0.0207443 -1.10109
0.0577295 -0.0180684 -1.07958
-0.085867 0.0647999 -1.00186
-0.0343509 -0.381233 -1.03159
-0.026654 -0.0635135 -1.03109
0.145661 0.0193856 -1.09824
0.0697172 -0.155829 -1.06269
0.0616171 0.116765 -1.1326
-0.0824685 0.0214823 -0.973006
-0.0786811 0.0214796 -0.971882
-0.081931 0.0202231 -0.978627
-0.0760416 0.00654098 -0.986571
-0.0715052 0.0200091 -0.987938
-0.0669765 -0.00885387 -1.01019
0.115184 0.0564967 -1.12165
0.115673 -0.120674 -1.07975
-0.0604066 0.0216399 -1.00363
0.111993 -0.394455 -1.04959
-0.0321975 -0.378013 -0.937848
0.0578284 -0.0159895 -1.08213
-0.0105326 -0.303125 -0.959673
-0.0175029 0.0317727 -1.10315
0.0313116 -0.112428 -0.99042
0.0145862 0.0207379 -1.12813
0.171683 0.124694 -1.11591
0.059363 0.0210082 -1.13757
0.000590415 -0.247541 -1.01195
0.0984745 -0.0700947 -1.07979
0.0644961 0.0213807 -1.13591
0.13384 0.0830816 -1.12997
0.165245 -0.0569121 -1.06343
0.131488 0.0224063 -1.10006
-0.0780895 0.0230954 -0.987518
-0.077756 0.0774134 -1.02896
0.129052 -0.116425 -1.07258
-0.0668129 0.0231692 -1.00416
-0.0610479 0.0308247 -1.02828
-0.0700821 0.126571 -0.977357
0.0286665 -0.0842856 -1.04998
-0.05992 0.0218182 -1.03811
-0.0602847 0.0203774 -1.0464
0.053945 -0.199931 -0.969163
0.0448895 0.0427786 -1.15092
-0.0283007 0.0369776 -1.07211
-0.0507966 0.0209926 -1.05938
-0.0382636 0.0213958 -1.06752
0.0936103 -0.173834 -1.08157
-0.0266325 0.0230442 -1.0762
-0.0252627 0.020721 -1.07577
-0.0203146 0.0213174 -1.07797
0.0499433 -0.162348 -1.02989
-0.0170216 0.021345 -1.08208
0.113189 -0.024074 -1.06475
-0.0145885 0.0236918 -1.10247
-0.00895384 0.0234006 -1.11582
-0.0048009 -0.380914 -1.071
-0.00408181 0.0208521 -1.11847
0.115134 -0.223099 -1.10332
0.0125607 0.00265415 -1.10383
0.0416838 -0.211668 -1.04738
0.0114969 0.0235194 -1.13006
0.166151 0.124082 -1.11885
0.0284311 0.0220241 -1.13521
-0.0371004 -0.37238 -0.979529
-0.0577062 0.152057 -1.03704
0.16186 -0.0816205 -1.05435
0.0342404 0.0209894 -1.13604
0.0180517 -0.0160835 -1.0907
0.0331927 0.0227969 -1.13822
0.0536688 -0.187938 -0.903388
-0.0704961 0.00508392 -1.01818
0.0302985 0.0232693 -1.1437
0.0520752 -0.189405 -0.906581
-0.0494177 0.151568 -1.04351
0.000264776 0.0214045 -1.12085
-0.0126405 0.0230815 -1.10613
0.0286212 -0.111114 -0.995265
0.0834931 0.0240933 -1.13026
0.0747595 0.000135768 -1.10408
0.102215 -0.0996832 -1.07814
0.0200421 -0.235906 -1.06895
0.107362 -0.281429 -1.05123
0.166797 0.0241478 -1.09545
0.0641678 -0.163214 -1.06181
-0.0598229 0.0248065 -1.03572
-0.0410398 0.0705581 -1.09166
-0.0602377 0.0248539 -1.04966
0.166555 0.070174 -1.12654
0.0560396 -0.0544598 -1.0777
-0.0198134 -0.0700885 -1.02878
0.0754024 0.0248623 -1.13267
-0.0618116 0.0527875 -1.06006
0.085902 -0.18922 -1.08145
0.142011 0.0605469 -1.12403
-0.0443036 0.05899 -1.06928
0.0844571 -0.191384 -1.08326
0.140735 0.0249543 -1.10447
-0.0396335 -0.0880004 -0.991221
0.163155 0.0258649 -1.10026
-0.0553315 -0.03127 -0.965323
-0.0172645 -0.345247 -1.01465
-0.0711667 0.0246522 -0.9875
-0.0771187 0.0965003 -1.03965
-0.0596497 0.0312149 -1.02456
0.035611 0.0829478 -1.14988
-0.0339963 0.160633 -1.06155
0.0369233 -0.102861 -0.959511
-0.058281 -0.0463993 -0.97785
0.102115 -0.262513 -1.06676
0.0941365 0.0272616 -1.12389
-0.0189175 -0.324638 -0.939759
0.0563988 -0.192236 -0.977906
-0.0976121 0.0253624 -0.988874
0.0609889 -0.329896 -1.05911
-0.081429 0.0959367 -1.01922
0.0834651 -0.372087 -1.02953
-0.0607162 0.0252411 -1.00718
-0.0607158 0.026277 -1.01494
-0.0613493 0.0255914 -1.02068
0.14583 -0.0958569 -1.05856
0.00408065 0.0111605 -1.11349
0.15312 0.0806821 -1.13124
-0.00956509 -0.274208 -1.06998
-0.0585476 0.0260408 -1.05136
0.0515799 0.111173 -1.13319
-0.00368166 -0.379449 -1.05727
0.00379201 -0.0464112 -1.0576
0.0358862 -0.216579 -1.04731
0.100936 -0.185645 -1.108
-0.0580732 0.0263552 -1.05758
0.013402 -0.33327 -1.0534
0.139833 -0.141228 -1.09023
-0.0503626 0.0263884 -1.05866
0.02458 -0.26725 -1.07751
-0.0664856 -0.00434468 -1.01735
0.029795 -0.221532 -1.0388
-0.0598431 -0.384483 -0.952659
-0.0209512 0.0100203 -1.07337
0.0404394 -0.21451 -0.975824
-0.00715841 0.0261729 -1.12135
0.119453 -0.228403 -1.09789
-0.02078 0.0265561 -1.0784
-0.0189273 0.0265792 -1.08498
-0.0140083 0.0281117 -1.09574
-0.0124755 0.027554 -1.11256
0.135063 0.00206518 -1.08357
-0.046347 0.165513 -1.03991
0.00407254 0.0265007 -1.12648
0.014666 0.0272914 -1.13393
0.0173586 0.0262899 -1.13329
-0.0147289 -0.267725 -1.05139
0.0260948 0.0284284 -1.13753
0.0283608 0.0272591 -1.14143
0.0316946 0.0263787 -1.13944
-0.0484762 -0.0655419 -1.00888
0.0318084 0.0284805 -1.14437
0.035687 0.0270062 -1.14252
0.0395712 0.0277781 -1.14377
-0.00838532 0.0109671 -1.08629
0.143387 0.113402 -1.12806
0.0433496 0.0268324 -1.14318
0.00839025 -0.00969842 -1.09131
0.0465733 0.0273753 -1.14468
-0.0454874 0.169282 -1.04297
0.0608751 0.0262574 -1.1391
-0.0119393 0.0256497 -1.09652
0.0188925 0.0968439 -1.14322
-0.041978 0.116481 -1.09791
0.157491 0.029257 -1.10867
-0.0597495 0.0292956 -1.05576
-0.0647211 -0.0277744 -0.999338
0.0490126 -0.389067 -1.08908
0.113918 0.030591 -1.11257
-0.0608231 0.0347665 -1.02575
-0.0425591 -0.0330787 -1.04532
0.0898922 0.0013842 -1.09881
0.107416 0.0915546 -1.12545
0.137925 -0.0471178 -1.05679
0.146257 0.0308621 -1.11285
0.0376661 0.143203 -1.13522
0.150246 0.0300546 -1.11195
0.0829741 -0.14971 -1.07052
0.116867 0.00320192 -1.08633
-0.0101387 0.0301107 -1.12264
0.0633661 -0.179941 -0.943758
-0.0672705 0.106448 -1.06771
0.111407 -0.0848872 -1.07349
0.0209926 -0.223361 -0.913349
-0.0235055 0.0302769 -1.07476
-0.0391384 0.169566 -1.03753
-0.0364712 0.106922 -1.10679
0.146339 0.0325231 -1.10857
-0.0626656 -0.034721 -0.993781
0.0581714 -0.162222 -0.955788
-0.0783845 0.0300407 -0.981605
-0.0237962 -0.0861903 -0.998503
0.0897135 -0.192781 -1.09339
-0.0631645 0.0298539 -0.992385
-0.0634242 0.0301952 -0.995936
0.0812291 -0.197269 -1.09843
-0.0610353 0.0308954 -0.997896
-0.03482 -0.038697 -1.05108
-0.0347847 0.0118659 -1.06912
0.0850355 0.130877 -1.12267
-0.063648 0.0755429 -1.06318
0.0869924 -0.195002 -1.11363
-0.0577453 0.0309061 -1.0032
-0.06138 0.0306331 -1.01362
0.147048 -0.00249843 -1.0774
-0.0620959 0.0308345 -1.02098
0.0820553 -0.193697 -1.08481
-0.0669092 -0.000479136 -1.00913
0.138035 -0.031027 -1.06185
-0.0231577 0.0315158 -1.0811
-0.0217786 0.0315168 -1.08811
0.0521917 -0.192089 -0.895298
-0.10229 0.0910305 -1.01976
0.027871 0.0314094 -1.14245
-0.099562 0.0900531 -1.01279
-0.0116358 0.0274246 -1.11975
-0.00843719 -0.286223 -1.06421
0.0420467 0.0315348 -1.14429
0.118655 -0.0195279 -1.06305
0.139588 0.109338 -1.13102
0.0715283 -0.145981 -0.932405
0.0457425 0.0312766 -1.14571
-0.028106 0.0357421 -1.0781
0.0600529 0.0317029 -1.14081
-0.0270072 0.026523 -1.07666
0.0192997 -0.00269691 -1.07576
0.0701547 0.0333378 -1.14063
0.0313617 -0.37382 -1.05753
0.0984937 -0.0667643 -1.07971
-0.00458362 -0.252627 -0.924922
0.0736977 0.0310597 -1.13885
0.111534 -0.388983 -1.04032
-0.0959097 0.114596 -1.01791
0.135602 0.116763 -1.11634
0.0350805 -0.0859824 -1.05987
-0.059754 0.0337912 -1.04125
-0.0890501 0.0046991 -0.977536
0.0402759 -0.136896 -0.993262
-0.0648956 -0.39148 -0.979991
-0.0580653 0.0313703 -1.05915
-0.0552403 -0.0491518 -0.978678
-0.0632784 -0.390277 -0.975874
-0.0557906 0.0322836 -1.05687
0.0831687 -0.167298 -0.906308
-0.0564205 -0.0190284 -1.03202
0.128648 -0.00697134 -1.07397
-0.0446647 0.0316106 -1.06665
0.025 -0.314729 -1.05649
0.144777 -0.127072 -1.07763
-0.0219107 0.0295396 -1.07846
-0.0405908 0.0314393 -1.07008
0.141044 -0.0311487 -1.0616
-0.0384856 0.0313381 -1.07288
0.0673013 -0.194973 -1.05601
-0.0643405 -0.0193489 -1.01741
-0.0126879 -0.383369 -0.919345
0.0814204 -0.337262 -1.05215
-0.0859921 0.116629 -1.00006
-0.0191082 0.0320101 -1.09994
-0.0760657 -0.0185659 -0.98879
0.0587795 -0.193535 -0.879154
-0.0631564 0.125248 -0.960121
-0.0121753 0.0325273 -1.11723
-0.0123924 0.03155 -1.11932
-0.0520151 0.00103922 -1.05291
0.18369 -0.209546 -1.10027
-0.0139396 0.0326762 -1.12798
0.0494193 -0.171122 -0.997322
-0.0506135 0.0234148 -1.05674
-0.0630998 -0.0215203 -1.00224
-0.0317078 -0.381783 -1.04188
-0.037776 -0.042486 -1.04624
-0.00703125 0.0329143 -1.13222
0.105778 -0.171489 -1.09824
0.000209437 0.032977 -1.13501
-0.0713256 0.0616392 -1.04854
0.0030315 0.0317742 -1.13127
0.0988086 0.0011387 -1.09364
-0.0514115 0.0382112 -1.06406
0.00432694 -0.390183 -0.892574
-0.0490777 0.0365797 -1.06401
-0.0031105 -0.27619 -0.913555
0.0220734 0.0343155 -1.1399
0.0321331 0.0344363 -1.1402
-0.0135393 0.0117662 -1.07931
-0.0250883 0.0467743 -1.11029
-0.0955761 0.0760495 -1.01351
0.05115 -0.394479 -1.09174
0.123812 0.0347669 -1.10898
0.145657 0.0341845 -1.11241
-0.0158144 -0.279293 -1.02335
-0.0924264 0.0353049 -0.984562
0.0241034 -0.221987 -0.917587
-0.0673664 -0.0298172 -0.986626
0.0177814 -0.0106784 -1.09671
-0.00375343 -0.252127 -0.945627
-0.0815992 0.0230392 -0.973133
-0.0685744 0.0349876 -0.989997
-0.0535112 -0.0362533 -1.02409
0.0129919 -0.378952 -0.911193
-0.0137193 0.0063505 -1.07911
-0.0983154 0.0924736 -1.01112
0.0276971 -0.000324604 -1.11665
0.112454 0.0660153 -1.12572
-0.0178497 0.0354391 -1.10447
-0.0201597 0.0369042 -1.09989
0.01211 0.0356581 -1.13964
0.00779263 -0.0485889 -1.05748
-0.0701463 0.129228 -0.973615
-0.101472 0.0962912 -1.01924
0.0691284 -0.175038 -0.932304
0.0753965 0.0357231 -1.1395
-0.0814295 0.130735 -1.00451
0.00697173 -0.0187739 -1.08619
-0.0447395 0.00628642 -1.05928
0.0954474 -0.04859 -1.0767
0.11786 0.0371347 -1.11355
0.109168 0.0321719 -1.11624
0.137303 0.0361689 -1.11171
0.145989 0.111983 -1.12719
-0.00877023 -0.286135 -0.956633
0.0236684 -0.0162486 -1.09075
-0.0934173 0.0368043 -0.987083
-0.0801063 0.0370404 -0.974939
0.121185 0.101048 -1.12066
0.113512 -0.199805 -1.12292
0.0137796 -0.365162 -1.0444
-0.0751529 0.0354742 -0.984959
0.00122388 -0.247487 -0.95659
0.123884 -0.0168042 -1.06452
0.06876 -0.177449 -0.940619
0.0248491 -0.000767929 -1.09577
0.031845 -0.386747 -1.08453
0.128148 0.0240686 -1.10159
0.0524419 -0.135761 -0.955496
-0.0689785 0.0370816 -0.98712
0.0890199 -0.0253571 -1.07436
0.0360066 -0.135531 -0.997078
0.0347728 -0.121086 -1.0246
-0.0220239 -0.384158 -1.05512
0.030199 -0.00724657 -1.08785
0.0346866 -0.131095 -1.0103
-0.0654765 0.0357124 -0.989974
-0.00726634 0.167066 -1.09391
0.0540032 -0.147956 -0.958933
-0.0600447 0.035545 -0.998288
0.0676924 0.0320876 -1.13986
-0.056361 0.0355771 -0.998731
-0.0769254 -0.00159716 -0.987358
-0.0605434 0.0351785 -1.00707
-0.0624158 0.0354328 -1.01308
0.159962 -0.141537 -1.10523
-0.0641494 0.0353834 -1.01752
-0.0629673 0.0353764 -1.02081
-0.0134603 -0.295901 -1.03493
0.0258058 0.113283 -1.1315
-0.0507923 0.12118 -0.939959
-0.0641713 0.0125335 -1.01297
-0.0345675 0.0368819 -1.07428
-0.0141229 0.0361675 -1.11403
0.0517164 0.0361509 -1.14548
0.0975327 0.117069 -1.11684
-0.0954206 0.0154314 -0.983553
0.165991 -0.0497913 -1.05966
-0.0990897 0.00549697 -0.980811
0.0662548 0.0378788 -1.14365
-0.0308813 0.00102982 -1.0675
0.04953 -0.190382 -1.00811
-0.0886239 0.00753664 -0.97214
-0.0235619 0.0422663 -1.10239
-0.0444593 -0.0761914 -0.994485
0.0554044 0.0102132 -1.12905
0.094445 0.0383549 -1.12959
0.166661 0.0411956 -1.11343
-0.0787651 0.127542 -0.995667
0.197764 -0.192194 -1.11134
-0.0945451 0.0382567 -0.992337
0.134362 0.036545 -1.10974
0.145104 0.106659 -1.13291
0.0471433 -0.404084 -1.09032
-0.0582568 0.0386346 -1.00099
-0.0215393 -0.309274 -1.00262
0.163893 -0.00214183 -1.06745
0.0158473 0.00218643 -1.08425
0.179494 -0.0612381 -1.05814
-0.0647245 0.0368083 -1.02981
-0.0580908 0.0358227 -1.03859
-0.0970883 0.0899998 -1.01677
-0.0553184 0.0358454 -1.04836
-0.0657422 -0.395342 -0.978884
-0.0575995 0.0366915 -1.05774
-0.0337941 0.0357851 -1.07296
0.00917718 0.15132 -1.11064
0.0127434 -0.38804 -0.893996
-0.0616389 -0.0328932 -1.0077
0.145585 -0.0261088 -1.06229
0.158434 0.0448052 -1.11884
-0.0194583 0.0366432 -1.0956
0.0390244 -0.224013 -1.09148
-0.0109097 -0.281927 -0.991154
0.160601 -0.00560734 -1.06561
-0.0164872 0.00557291 -1.07955
-0.0820739 -0.00532773 -0.97126
0.0480837 -0.213957 -1.06937
-0.0195168 0.0373011 -1.10475
-0.0180553 0.0367241 -1.11011
-0.0194227 0.0375484 -1.11499
0.0906704 -0.205537 -1.11222
-0.0521063 0.0658547 -1.06763
-0.0822063 0.101274 -1.0125
0.156933 -0.0302715 -1.05544
-0.0343478 0.0555413 -1.08478
0.141888 -0.234658 -1.08673
-0.00386906 -0.0356045 -1.06946
-0.0162132 0.0368592 -1.11665
-0.0111704 0.0368451 -1.13201
-9.58227e-06 0.0384184 -1.13855
0.151215 0.0190369 -1.09727
0.0184473 0.00109131 -1.10563
0.00313773 0.0368753 -1.13897
0.0144113 0.00267741 -1.10621
0.147301 -0.147078 -1.10313
0.157819 -0.155898 -1.12263
-0.02109 0.0383417 -1.10248
0.00756435 0.0372357 -1.14137
-0.058603 0.0264997 -1.03172
0.010971 0.0375885 -1.14319
0.0744195 -0.380078 -1.05925
0.16212 -0.0774312 -1.0556
0.0187079 -0.228865 -0.992672
-0.0679766 0.000410909 -1.01399
0.0240411 0.0376871 -1.14633
0.0353901 0.0372315 -1.14832
-0.00917896 -0.023259 -1.07437
-0.0719502 0.116449 -0.973604
-0.0907748 0.117726 -1.0109
0.0289514 -0.074278 -1.06503
0.0291851 0.0121584 -1.12687
0.156533 0.0390977 -1.11558
0.0731089 -0.169807 -0.933364
0.0117583 -0.253087 -1.07964
0.145 -0.0417242 -1.06075
0.0914887 -0.0904318 -1.08091
0.023941 -0.244924 -1.08475
0.0795702 0.012999 -1.11939
0.0767033 -0.196536 -1.08441
-0.0762652 0.0393882 -0.97882
0.0366052 -0.132379 -1.01375
0.0594745 -0.372548 -1.05653
0.0655851 -0.0260187 -1.07752
-0.0182316 -0.353492 -0.970117
0.098689 -0.0258554 -1.07045
-0.0706635 0.0391277 -0.986754
0.038837 -0.140004 -0.994752
-0.0547723 0.0372228 -1.04124
-0.0230418 -0.0179703 -1.06709
0.0874015 -0.104939 -1.07812
-0.00145716 -0.310977 -1.05496
0.0380226 -0.20675 -0.896252
-0.040595 -0.00337807 -1.06362
-0.0609373 0.0393333 -1.00538
-0.024733 0.0398582 -1.08958
-0.0186557 0.0397891 -1.10925
-0.0161738 0.0382331 -1.12973
-0.013819 0.0396957 -1.13147
-0.00097539 0.158057 -1.10211
-0.0586145 0.0308359 -1.03199
-0.0251279 -0.327739 -0.947104
0.0135901 0.040061 -1.14318
0.0392271 -0.00596819 -1.0849
-0.00252373 -0.0410873 -1.06385
-0.0576758 0.0397338 -1.04894
0.119093 0.0420476 -1.11466
0.133999 0.0401288 -1.10877
0.132402 0.0417509 -1.1121
0.151286 0.115768 -1.12535
0.150289 0.0425713 -1.11806
0.0596886 -0.186969 -0.959943
