ply
format ascii 1.0
comment Created by Open3D
element vertex 1692
property double x
property double y
property double z
end_header
0.0547849 0.147582 -0.921
0.0399529 -0.115458 -0.979857
-0.0255205 0.109556 -0.865143
0.0508029 0.161123 -0.9345
0.0156869 0.14954 -0.893875
0.00473138 0.150024 -0.893333
0.0204199 0.0493321 -0.8885
0.0165018 -0.0840677 -0.912
-0.0835023 0.11377 -0.893
-0.062464 -0.196891 -1.068
0.0504424 -0.085282 -0.972778
0.0505408 0.00935465 -0.894667
-0.0383811 -0.0583626 -0.901
0.0400388 -0.370269 -0.928875
0.0410423 -0.0395876 -0.90375
-0.00144204 -0.0891862 -0.916
0.0686621 0.134151 -0.9186
0.0397507 0.00933199 -0.892556
0.0358711 -0.389889 -0.899167
0.029995 -0.0655537 -0.898667
0.0769934 0.104403 -0.884
-0.102255 0.0626042 -0.933
0.119585 -0.38732 -0.9245
-0.04458 0.114949 -0.868333
-0.0539226 0.114275 -0.8698
-0.0866488 -0.0100094 -0.995
0.050794 0.109613 -0.887571
0.0934134 -0.330564 -0.942
-0.0563139 0.0792164 -0.879
-0.0817976 0.0728587 -0.902
0.129443 -0.210729 -0.9475
-0.0503733 0.135015 -0.8835
0.00890392 0.0192206 -0.858
-0.0710069 0.130253 -0.8895
-0.0212006 -0.310724 -0.95275
0.0376172 -0.0870339 -0.9525
0.0302991 0.129562 -0.878714
-0.0210922 0.0145829 -0.88775
-0.020786 -0.146322 -1.016
-0.00499706 -0.32629 -0.9305
-0.019649 0.0945092 -0.864357
0.0769841 -0.0664201 -0.998
0.034902 0.097905 -0.8828
-0.0358741 -0.0459805 -0.9004
0.0204228 -0.266156 -0.943333
0.0243196 0.0512448 -0.88525
0.0800505 0.091116 -0.914
0.0854369 -0.269942 -0.9158
0.010331 0.128249 -0.8705
0.00496645 -0.399896 -0.897333
-0.000643674 -0.0580725 -0.897
-0.0597673 0.10444 -0.874818
0.0988359 0.0627327 -0.96
-0.00433442 0.0937319 -0.867111
-0.0393291 -0.0056722 -0.88425
-0.0595717 -0.205242 -1.0485
0.0303463 0.135239 -0.879667
0.053473 -0.0898429 -0.973667
0.00569671 0.0940307 -0.864615
-0.0497454 0.084624 -0.8725
0.0346333 -0.36517 -0.9328
-0.0740553 0.123956 -0.8842
0.010242 -0.215001 -0.998143
-0.0545165 0.0537115 -0.87525
-0.0446768 0.159812 -0.913
-0.0153864 0.160002 -0.901
-0.0873275 0.0155859 -0.947
-0.0100365 -0.285665 -0.949375
-0.0695172 0.154304 -0.919
0.08594 -0.0108446 -0.9935
-0.0596597 0.0498705 -0.880143
0.0343763 0.135239 -0.879667
0.11414 -0.405715 -0.9106
0.0289151 -0.0753215 -0.91
0.0359019 -0.38177 -0.909167
-0.0297554 -0.0419668 -0.89725
-0.00869799 0.159045 -0.904667
0.120231 -0.139284 -1.022
0.0491453 -0.0912133 -0.9705
0.0276947 0.0262336 -0.897
0.0112633 0.100511 -0.8675
-0.0467461 0.150229 -0.908
0.00932937 -0.34125 -0.9284
-0.0747762 0.0894833 -0.887444
-0.0637932 0.0344969 -0.912
-0.0105787 0.0337516 -0.86425
0.0620377 -0.246969 -0.944333
0.00504508 -0.0349488 -0.878143
-0.0979894 0.112357 -0.906
-0.0148954 0.157736 -0.89475
-0.0453192 0.159561 -0.91
-0.119132 0.0495146 -0.95425
0.0686269 0.098305 -0.908
-0.0242555 0.029141 -0.892333
-0.00502799 -0.221549 -0.9955
-0.099084 0.00186827 -0.9745
0.000116455 -0.00563302 -0.850222
0.0721148 -0.125801 -0.9985
0.0642385 -0.378005 -0.92
-0.0481801 0.0469894 -0.883
0.0501295 -0.390338 -0.8935
0.0728722 0.129914 -0.92
-0.0274471 -0.0906791 -0.948
0.0101744 0.0791716 -0.8646
-0.0689542 -0.218069 -1.052
0.0431998 0.138695 -0.895
0.0227098 0.131246 -0.877
-0.036214 0.00623975 -0.887
-0.0340648 -0.231496 -0.99975
0.0550127 -0.218713 -0.9782
-0.0599217 0.0800507 -0.879571
0.0645173 -0.205339 -0.983125
0.0917486 0.0129322 -0.992
0.0908332 -0.294698 -0.921
0.0758669 0.059014 -0.9338
0.0105835 -0.0979528 -0.9395
0.0311709 -0.0306209 -0.894167
-0.0116486 0.0722709 -0.86
0.0543597 0.153372 -0.927
-0.0408488 -0.0937534 -0.998
0.00564204 -0.244887 -0.965286
0.00552308 -0.0569176 -0.903
-0.0346502 -0.0353615 -0.890125
-0.0505863 0.00507281 -0.8944
0.0497909 0.128961 -0.885
-0.0174787 -0.174286 -1.024
-0.0437505 -0.110434 -1.025
0.0706205 0.0409332 -0.916
-0.0330123 -0.0918115 -0.9685
-0.06186 0.0218882 -0.907
0.0457666 -0.242167 -0.955
0.0356569 -0.030759 -0.898167
0.0662936 0.0347244 -0.918
-0.0583995 0.14616 -0.907
-0.0666733 0.0056265 -0.909
0.0438794 -0.162816 -0.9975
0.0758185 -0.310648 -0.934286
0.0605492 0.150509 -0.924
0.010288 -0.261587 -0.949143
-0.0118262 0.127147 -0.87
0.0906888 0.0296543 -0.974
-0.0565195 -0.393099 -0.962
0.0941604 0.0532432 -0.957667
0.0411686 0.154501 -0.909444
0.0356812 0.149689 -0.898667
0.054716 -0.1708 -0.997
-0.00295185 0.150905 -0.894
0.0101433 0.137529 -0.875
0.0807418 -0.325652 -0.934
-0.000390787 -0.0756134 -0.898333
0.0760546 -0.16031 -1.0025
-0.0401422 0.0523885 -0.872333
-0.0402755 -0.10587 -1.0086
0.000119592 0.116843 -0.872
0.0153556 -0.250318 -0.959375
0.0152983 0.0290278 -0.889143
0.136103 -0.161739 -1.00033
-0.0590041 -0.226784 -1.0145
0.0305868 0.0321825 -0.892
-0.0279189 -0.212063 -1.015
0.0666148 0.0589674 -0.903667
0.100021 -0.110465 -1.02313
-0.114303 0.0253377 -0.96975
0.0837714 0.0742571 -0.9345
0.0803992 0.0907283 -0.918
0.0844977 -0.272297 -0.9175
-0.034694 0.12563 -0.872
-0.0462237 -0.181621 -1.078
0.025124 -0.0104286 -0.88775
-0.010996 0.0938227 -0.865667
0.0251063 0.163695 -0.913875
0.0135556 0.0136191 -0.874667
0.0944915 0.0494457 -0.9585
0.0149756 -0.267074 -0.945667
-0.0810901 0.153837 -0.9335
-0.0190902 -0.155426 -1.01778
-0.0251511 -0.393034 -0.91
-0.0130783 -0.00862418 -0.859
-0.0286364 -0.0760154 -0.909
0.0234052 -0.104563 -0.971
0.114788 -0.230018 -0.9378
-0.0350934 -0.379579 -0.9925
0.0327991 0.0611044 -0.869
-0.0377799 -0.336002 -0.978
-0.0305813 0.0431854 -0.899
-0.0709446 0.151862 -0.917
-0.102683 0.13733 -0.948
0.00180345 -0.360624 -0.941
-0.0295745 -0.0772155 -0.914
-0.0244335 -0.391012 -0.9146
-0.105859 0.037713 -0.952
-0.0603878 -0.275421 -0.9695
-0.0347504 0.0343069 -0.887833
0.05068 0.102865 -0.893667
-0.0614437 0.0700812 -0.8825
-0.0867503 0.131341 -0.918
-0.0200613 0.0893851 -0.864143
-0.0694416 0.150082 -0.9142
0.0406673 -0.000733014 -0.8926
-0.0193844 -0.00582404 -0.879
0.010144 0.0643403 -0.8627
-0.0491453 0.119281 -0.8695
0.016705 0.132904 -0.878
0.0148325 0.108979 -0.86925
0.120293 -0.195129 -0.963
-0.0497511 0.109526 -0.867786
0.0436202 -0.0249003 -0.899
0.0303826 -0.0457707 -0.905071
0.130204 -0.136493 -1.0205
0.0512082 -0.382626 -0.906
0.0623682 0.0834672 -0.9085
0.0945369 -0.115205 -1.01844
0.0842344 0.00524714 -0.9835
-0.0466111 -0.396437 -0.9325
-0.0455245 -0.0226487 -0.891
0.0245314 0.152496 -0.90075
-0.0696996 0.0793839 -0.888857
0.0983626 -0.100678 -1.0225
0.0648798 0.0699232 -0.905
-0.0498159 0.150063 -0.907
0.0117501 -0.00564441 -0.852
-0.00321305 -0.358883 -0.9435
-0.0335869 0.147333 -0.891
0.0583701 0.0944873 -0.8945
-0.0456382 0.0340565 -0.8928
0.143542 -0.176166 -0.974
-0.0341873 0.153996 -0.8995
0.0896677 -0.294976 -0.926
-0.101388 0.0785156 -0.9175
0.0100518 -0.290885 -0.944333
-0.0633735 -0.0323488 -0.906
-0.0839396 0.0914106 -0.891
0.0753159 0.0489222 -0.928333
-0.0548922 -0.245669 -0.994714
-0.00311248 -0.401976 -0.902
0.0759315 0.00906601 -0.9435
-0.00836099 -0.0769732 -0.902
0.11019 -0.226959 -0.9405
-0.0993952 0.0880753 -0.906
-0.0676448 -0.0281902 -0.922
-0.0405742 0.0103612 -0.893667
0.11045 -0.200049 -0.9676
-0.0986961 0.0699008 -0.9185
0.015254 0.142478 -0.880333
0.0649769 -0.0747712 -0.98425
-0.0255593 -0.0458301 -0.89775
-0.0415661 0.089537 -0.869333
0.054501 -0.0639356 -0.949
-0.0789923 0.124661 -0.8935
0.0900675 -0.171067 -1.00312
0.0698667 -0.266424 -0.9235
0.0904298 0.0711696 -0.941
0.0949101 -0.236018 -0.938667
-0.119344 0.040955 -0.963333
-0.043732 0.163691 -0.916
-0.0155607 0.149412 -0.889625
-0.0335325 0.127355 -0.871
-0.0247193 0.137974 -0.876
0.0397952 -0.186079 -1.00033
0.079536 -0.125838 -1.00533
0.0684885 0.0460376 -0.9085
-0.0213463 0.0416033 -0.898
-0.0719739 0.130618 -0.892
-0.109028 0.0301276 -0.9598
-0.00151941 -0.342611 -0.9335
0.0781158 0.0229491 -0.95
0.0347725 0.148076 -0.8955
-0.0299521 -0.106167 -0.9986
0.0416425 0.150643 -0.9105
-0.0594975 -0.390204 -0.985
-0.0687704 -0.012343 -0.916
0.0640947 -0.0258804 -0.924
-0.0215923 -0.0820551 -0.907
0.0106084 0.0503968 -0.8775
-0.0726654 0.0972658 -0.884
-0.0545456 0.164799 -0.924
0.00547824 0.147135 -0.89
-0.0146632 0.129631 -0.873429
0.0715828 -0.0160502 -0.95
-0.114881 0.0868694 -0.917
-0.0411053 0.0852562 -0.86775
0.107628 -0.0963675 -1.062
0.0349761 0.053241 -0.887
0.0578685 -0.248983 -0.948
-0.0990074 0.115621 -0.915
-0.0365601 -0.165938 -1.068
-0.067956 0.112171 -0.881
0.101297 0.0156425 -1.002
0.0895404 -0.20061 -0.974889
-0.0887334 0.139607 -0.9284
0.0355471 -0.216903 -0.990667
0.0546198 0.157313 -0.931
-0.0782685 0.143572 -0.92
0.0353453 -0.0702767 -0.9155
0.0959524 -0.222911 -0.951
0.100258 -0.369653 -0.989
0.0298114 0.0842953 -0.874833
-0.0241686 0.140672 -0.88325
0.0601996 -0.199787 -0.9935
-0.0198035 -0.0354591 -0.889889
0.0408774 -0.386856 -0.9005
0.0340069 -0.0629847 -0.901
-0.102824 0.0118276 -0.97
-0.0397451 0.000398522 -0.888143
0.0882945 -0.377533 -0.931
-0.0597634 -0.212664 -1.035
0.0661708 0.144663 -0.925
-0.0554376 -0.219347 -1.0234
-0.0827353 0.14366 -0.925667
-0.055027 0.0431762 -0.89
-0.046364 -0.0478688 -0.907
-0.0805215 0.103323 -0.892
-0.0442615 -0.177479 -1.076
0.0944779 -0.184254 -0.993333
0.0187487 0.155446 -0.902
0.0349241 0.0501347 -0.885667
0.0491221 -0.0878475 -0.9705
0.0506673 -0.0102353 -0.90375
-0.0397228 -0.0404422 -0.897
-0.125117 0.0344472 -0.973833
-0.0649423 0.0550507 -0.8845
-0.0198191 0.07405 -0.863583
0.111185 -0.109075 -1.043
-0.0506371 -0.189136 -1.0725
0.0253954 0.0604141 -0.86975
0.0989369 -0.356113 -0.978
-0.00644331 -0.199564 -1.018
0.05248 0.150958 -0.922
-0.0677916 -0.0266713 -0.924
-0.0983573 0.0663937 -0.919
0.149818 -0.127027 -1.02967
-0.0655416 0.0548571 -0.88725
-0.0463431 -0.383989 -0.98
0.0257573 0.0581958 -0.874
0.106572 -0.113353 -1.033
-0.0747955 0.109549 -0.887857
-0.0500593 0.163347 -0.91
-0.0161162 -0.371151 -0.9635
0.0575498 0.151777 -0.927
0.0275267 0.0108441 -0.892
-0.00956138 0.114163 -0.868687
0.0330748 0.0908393 -0.875
-0.0243784 0.0521605 -0.869
0.063037 0.153486 -0.937
-0.111966 0.0340042 -0.962
0.120015 -0.381255 -0.958667
0.0449646 0.144304 -0.903571
0.010502 0.119097 -0.864714
0.0343367 -0.0180722 -0.8905
0.0654237 -0.0908272 -0.9876
0.125175 -0.185858 -0.974
-0.122083 0.0244856 -0.977
0.0850188 0.0608513 -0.9445
0.0854219 -0.209978 -0.968143
0.0467748 0.15284 -0.919
-0.00442147 0.00435008 -0.85075
0.0808475 -0.374071 -0.9435
-0.030393 -0.175883 -1.04433
0.118289 -0.097967 -1.059
-0.00967974 -0.300381 -0.953
0.015008 0.0999662 -0.869222
0.0707645 -0.120339 -0.998667
-0.0365178 -0.0318882 -0.894
0.055661 -0.286192 -0.932143
-0.111554 0.00358887 -0.988
0.0393834 -0.00632779 -0.889143
0.0318886 -0.382676 -0.9105
0.011063 0.124587 -0.8695
0.105418 -0.135006 -1.0225
0.101491 -0.378329 -0.946
0.0488054 0.0519276 -0.89
0.159126 -0.126661 -1.036
0.0833784 -0.0466309 -1.014
-0.0871108 0.0010205 -0.9625
0.0441056 0.093492 -0.8855
0.00485874 -0.320354 -0.933625
0.0912065 -0.365061 -0.967
-0.0497434 0.0439585 -0.893
0.0606616 -0.0959976 -0.985
0.0424051 0.131612 -0.879
0.0619154 -0.180903 -0.9955
-0.0392101 -0.384511 -1.008
0.0446259 -0.0203482 -0.898625
-9.41284e-05 0.139544 -0.873
-0.0415165 0.133668 -0.875667
-0.0853783 0.144085 -0.928333
-0.0694461 -0.0219549 -0.925
-0.0989202 0.0792008 -0.9136
-0.023868 -0.140399 -1.014
-0.0264022 0.162528 -0.906
-0.0805643 0.139206 -0.9195
0.139144 -0.188528 -0.954
0.119879 -0.390358 -0.9234
0.0979665 0.0507625 -0.952
-0.0311123 -0.0902776 -0.961
0.0573513 -0.0864955 -0.983
-0.0669112 -0.0122891 -0.912
0.00432445 -0.365381 -0.944
0.0103702 0.145881 -0.887714
-0.0040645 0.134125 -0.87
-0.0564896 -0.0517272 -0.92
0.0528714 -0.0557683 -0.935
-0.0869689 0.0624185 -0.908
0.0775402 0.0292332 -0.943
0.0445182 -0.360315 -0.932
-0.0252719 0.128675 -0.8698
-0.0886452 0.120147 -0.906
-0.015766 0.0433563 -0.8776
0.000118585 0.0928702 -0.866
-0.0549274 0.0910283 -0.875
-0.0924933 0.113682 -0.898
-0.061781 0.059084 -0.882333
-0.0197606 0.08119 -0.8605
-0.0501692 0.0413449 -0.892
0.140557 -0.187283 -0.968
0.0128307 0.170164 -0.922
-0.0247331 -0.050771 -0.898
-0.114483 0.0845874 -0.927
0.0605528 0.15574 -0.936
-0.016808 -0.0791121 -0.9
-0.0877863 0.0457305 -0.917
-0.0444425 0.133915 -0.879
0.0249097 -0.310226 -0.939857
0.0808483 0.0377151 -0.9535
0.0587391 0.149973 -0.929
0.0794087 0.0559223 -0.939
0.086051 -0.237191 -0.9405
-0.0704898 -0.0139398 -0.918
-0.0348731 -0.378068 -0.986
-0.0246178 -0.382735 -0.924
-0.118622 0.0142799 -0.985333
-0.0293638 -0.070608 -0.899833
0.0049848 -0.0650354 -0.8893
0.124274 -0.173762 -0.993
0.0106415 -0.234402 -0.9776
0.0148048 -0.388 -0.911
0.085098 0.0946369 -0.917333
-0.0614737 -0.0448402 -0.924
-0.00481976 -0.280516 -0.944444
-0.0197214 0.0508948 -0.860167
-0.0289268 -0.231403 -0.995286
-0.0506761 -0.264958 -0.972
0.0667947 -0.0351613 -0.93975
0.0696176 -0.349419 -0.9385
-0.061634 0.119214 -0.877
-0.0541979 -0.22146 -1.0198
-0.0644411 0.142897 -0.89875
-0.0684424 0.119706 -0.880333
0.0400764 -0.366049 -0.93
0.0593037 -0.12494 -0.985333
-0.090396 0.150943 -0.944
0.0854126 -0.130244 -1.01062
0.0805907 -0.17633 -1.0035
-0.0307012 -0.0258493 -0.887667
0.0209464 -0.0501185 -0.892
0.0149693 0.115065 -0.866
0.0862222 0.00780127 -0.987
-0.000387121 -0.0737347 -0.894333
0.0181649 0.00318902 -0.881
-0.0686514 0.147172 -0.908
0.059746 -0.350314 -0.9336
0.152259 -0.186553 -0.997
0.0784127 -0.0355435 -0.995
-0.034554 0.0739736 -0.8625
0.0688181 -0.323731 -0.926
-0.0555797 0.143363 -0.8995
-0.0252885 0.136245 -0.87
0.0640375 -0.0158948 -0.918
-0.0193325 -0.0704472 -0.895143
0.0603375 -0.060858 -0.9645
0.0103394 -0.149499 -0.990333
-0.0899051 -0.0039896 -0.9795
-0.0303379 0.141871 -0.886
-0.0758525 0.145077 -0.9195
-0.0945937 0.114617 -0.903333
0.104263 0.0498022 -0.965
-0.00478583 0.139919 -0.87875
0.141923 -0.18385 -0.974
-0.0435611 0.00577187 -0.892333
0.0515327 0.0135568 -0.903
-0.0252843 -0.0856046 -0.928333
0.0249475 0.104992 -0.869333
0.079147 0.00843132 -0.963
0.0351222 0.0740987 -0.874467
-0.0793411 0.119421 -0.889
0.0763859 -0.20066 -0.98
-0.0805397 0.00978265 -0.934
-0.0101889 -0.225332 -0.994444
0.0813951 -0.371709 -0.9455
0.0152443 0.140117 -0.88
-0.0451026 0.0424049 -0.882333
-0.0240167 -0.268043 -0.955
-0.0789226 0.14932 -0.924167
-0.0164163 -0.330896 -0.938
0.066104 -0.0256505 -0.93
0.0704566 -0.339204 -0.929
-0.019951 -0.0809216 -0.903
0.0100741 0.0484726 -0.874333
-0.0262658 -0.346553 -0.964
-0.0601416 -0.406394 -0.962
0.0353739 -0.129939 -0.985
0.102291 0.052944 -0.962
0.10508 -0.204758 -0.963286
-0.0480999 0.0401277 -0.882
-0.0957162 0.0231428 -0.9575
-0.00288632 0.138532 -0.875
-0.0844637 -0.000129976 -0.9586
0.0386013 0.143375 -0.895
0.140427 -0.395686 -0.966
-0.0265059 -0.0964015 -0.973
0.0299152 0.154641 -0.903333
-0.0546864 -0.236001 -1.00383
0.0612934 -0.0706216 -0.9795
-0.0927041 -0.00486314 -0.987
-0.0436221 -0.267483 -0.965
-0.0211252 -0.112091 -0.993
-0.0799642 0.145576 -0.924333
-0.000255532 -0.0347052 -0.87875
-0.0833095 0.0332601 -0.92
0.135584 -0.135866 -1.02067
0.00450934 0.015796 -0.857667
0.0301855 -0.174995 -0.9975
0.116322 -0.250158 -0.93
0.0301421 0.0438122 -0.88425
0.0680874 0.104434 -0.88
-0.0604005 0.0248969 -0.9036
0.0161417 -0.0715477 -0.8925
-0.0520323 0.14136 -0.892
0.0121431 0.0242341 -0.8805
0.149424 -0.179005 -0.9845
-0.0113519 -0.0740437 -0.895
-0.0840592 0.0441413 -0.90875
0.0899089 -0.270051 -0.915333
0.0115862 -0.339492 -0.925
-0.0349456 -0.195993 -1.044
0.0410396 -0.31153 -0.93
-0.0139017 0.023751 -0.8738
0.16811 -0.112409 -1.071
-0.0393575 -0.305135 -0.965
0.000118992 0.114121 -0.869909
0.021094 0.120069 -0.873333
0.0962031 -0.316048 -0.950667
-0.0585456 -0.235774 -1.00533
-0.00990164 -0.106882 -0.977
-0.0953229 0.0740071 -0.913909
-0.121717 0.0277504 -0.9735
-0.0883209 0.0399745 -0.9294
0.147658 -0.149117 -1.017
0.0350351 0.133381 -0.883571
0.0148565 -0.339432 -0.924833
-0.0636366 -0.0264873 -0.90425
-0.0554162 0.00172851 -0.903
-0.0650419 0.115443 -0.879571
-0.0202257 -0.0201701 -0.8896
-0.0144941 0.103991 -0.867333
0.132111 -0.230424 -0.959
-0.0766831 0.0127328 -0.917
0.0402522 0.029798 -0.898857
-0.059277 -0.399844 -0.958333
-0.0121616 0.158403 -0.892
-0.0394313 0.140189 -0.885
-0.0296547 0.094516 -0.865273
-0.0358577 -0.0694565 -0.915
0.0240141 0.0454402 -0.893
-0.0348554 -0.014937 -0.885143
0.0354076 0.0593957 -0.874154
0.0390966 0.0277041 -0.895
-0.0392419 0.13838 -0.88075
-0.0257607 0.0184593 -0.892
-0.0556498 0.126336 -0.877333
0.0674792 0.0801041 -0.9145
-0.0703507 -0.398209 -0.988
-0.0340766 -0.0697949 -0.909
0.024891 0.0439247 -0.888
0.122353 -0.207983 -0.951
-0.0351319 0.139424 -0.884
0.0739005 -0.0752893 -0.994333
0.0142154 0.0536148 -0.8685
-0.0665524 0.122966 -0.882
0.0660911 -0.245648 -0.9445
-0.0733536 0.146154 -0.914667
-0.0394705 -0.191753 -1.055
-0.0292799 0.155783 -0.89925
0.054959 0.0343053 -0.913286
0.0407148 -0.0316831 -0.902667
0.0309509 -0.0923019 -0.948
-0.0648728 -0.175598 -1.12333
0.052109 0.144375 -0.916
-0.0344553 -0.379151 -0.973
0.0766721 -0.104743 -1.00317
0.025475 0.0568768 -0.873
0.0993637 -0.371764 -0.9644
0.00930313 -0.0546149 -0.8956
0.0251745 0.166199 -0.909
-0.05442 0.150629 -0.9055
0.0408851 -0.330632 -0.917625
-0.0187279 -0.0360211 -0.883
0.0638345 0.144275 -0.92
-0.0547528 0.146186 -0.90475
0.0681261 0.109785 -0.8805
0.0939123 -0.0860207 -1.01967
-0.063786 0.140375 -0.895
0.00661172 0.135559 -0.872
-0.046415 -0.209372 -1.037
0.0527521 -0.0137502 -0.906
0.0637232 0.148105 -0.924
0.0443779 -0.0550157 -0.913667
0.050748 -0.38038 -0.913333
0.0311862 -0.0358753 -0.89825
0.0319627 0.130627 -0.883
-0.0662102 0.0574872 -0.881
-0.0202197 -0.0854041 -0.914667
0.0457494 -0.130413 -0.984714
0.0833906 -0.140329 -1.009
-0.0952221 0.103707 -0.9025
0.0754109 0.108547 -0.895
0.0151652 0.137133 -0.875667
0.0852835 0.0309722 -0.963667
0.0288289 0.137727 -0.879
0.0116267 -0.343143 -0.928
-0.0994669 0.142296 -0.948
0.0903817 -0.16819 -1.007
-0.0248466 0.0796816 -0.8634
-0.0883462 0.145022 -0.934
-0.01036 -0.209503 -1.0136
-0.0539069 0.137206 -0.885
0.000450191 -0.397475 -0.8984
0.0110721 0.0455095 -0.8845
0.074921 0.0391936 -0.9305
-0.0700858 0.0697233 -0.889636
-0.0647485 0.10959 -0.878917
0.0418507 0.0264676 -0.905
-0.0579672 -0.406668 -0.954
-0.0387758 0.135048 -0.879
-0.0236663 0.113198 -0.867
-0.0362654 0.136681 -0.882
-0.0306277 0.133714 -0.873
-0.0179806 0.135989 -0.878
-0.0284174 -0.1971 -1.0355
0.0193092 0.134927 -0.876
0.00063206 -0.0549082 -0.895667
0.0418613 0.120413 -0.879
-0.102921 0.0312865 -0.955
-0.00982202 0.123486 -0.868833
0.0257646 0.119897 -0.8741
0.115306 -0.158638 -1.012
-0.0589194 -0.28336 -0.965
0.0952334 -0.390188 -0.913333
-0.0499681 0.149892 -0.904
0.00954687 -0.00563059 -0.85
-0.0359787 -0.0505289 -0.899167
0.0204963 -0.280103 -0.9394
0.101369 -0.383307 -0.927
-0.00869611 -0.0550523 -0.89775
-0.105215 0.120017 -0.932667
-0.0595389 -0.0314113 -0.91275
-0.0699631 0.109774 -0.884333
-0.0655924 0.135072 -0.8835
-0.0198177 -0.325778 -0.9434
-0.0146413 0.114374 -0.868636
0.0546268 0.0293453 -0.908556
-0.0345186 0.123824 -0.871
0.0646956 0.139391 -0.9195
-0.0547941 -0.217241 -1.025
0.120164 -0.164404 -1.008
0.00515276 -0.374746 -0.94
0.0262018 -0.237015 -0.9695
-0.0360758 -0.274531 -0.957333
-0.0248742 0.0545884 -0.860444
0.0776868 -0.369145 -0.947
-0.0713913 -0.0100321 -0.9195
-0.0248937 0.0993374 -0.865375
0.0153856 -0.0407878 -0.893833
0.0543197 0.139375 -0.909333
0.0770356 -0.0613343 -0.998667
-0.0266239 0.101243 -0.867
-0.104577 0.131734 -0.943
0.00177512 -0.274391 -0.941
0.0926292 0.0683767 -0.947
0.0768787 -0.0131515 -0.976
-0.0808203 0.141502 -0.922
-0.0742646 0.0992963 -0.8886
-0.0741054 0.153992 -0.92
-0.0158469 -0.223668 -0.99875
-0.0389283 0.162707 -0.907
-0.059978 0.0145734 -0.902
-0.036083 -0.0870781 -0.962
0.0258815 0.135851 -0.882
-0.0494064 0.0482247 -0.878
0.100424 -0.121227 -1.02433
0.0304862 0.145506 -0.894
-0.0449754 0.133263 -0.8745
0.0233097 -0.31115 -0.942
-0.0655736 0.149107 -0.908667
0.0399564 0.0244507 -0.897167
-0.0581157 -0.405995 -0.957
-0.118825 0.0696535 -0.940667
-0.0349066 -0.131262 -1.022
0.0395712 0.133249 -0.883167
-0.0399651 0.0391073 -0.883556
-0.0708478 -0.00293354 -0.9125
0.0447304 0.134666 -0.889
-0.00437622 -0.0247163 -0.8784
-0.0592525 0.118967 -0.875333
-0.0454911 -0.29563 -0.964889
-0.113676 0.0879433 -0.92
0.0600175 -0.378473 -0.923
0.00997669 -0.381895 -0.919
-0.0570528 0.0965067 -0.878
0.0906781 -0.16085 -1.00889
0.00439106 0.0999677 -0.867625
-0.0201569 0.0482584 -0.8795
0.0397972 0.136047 -0.888
-0.0451539 0.0394333 -0.883333
0.00716039 0.0991672 -0.8655
-0.0347765 0.089096 -0.863077
0.00990007 0.0989092 -0.8652
-0.124961 0.0578268 -0.959
0.0890635 -0.0804053 -1.014
-0.0753819 0.0190059 -0.904167
0.0643251 -0.184973 -0.997
-0.0139752 0.0818033 -0.867
0.0752174 -0.150987 -0.998714
0.0557556 0.0851056 -0.89925
0.0302839 -0.125267 -0.984714
-0.0771012 0.00649572 -0.922
-0.0165823 -0.309157 -0.952
0.0879992 -0.00402207 -0.988
-0.0687898 0.0887406 -0.880333
0.0903022 0.0485783 -0.957667
-0.0451657 0.0232206 -0.899
-0.0171443 0.163526 -0.912
0.0865478 -0.345577 -0.947
-0.0391825 0.0357179 -0.885
-0.0992852 0.0645527 -0.923
0.101952 0.0319255 -0.975
-0.04086 0.136836 -0.883
-0.00987222 0.152985 -0.893833
-0.0245876 -0.209173 -1.02317
0.0290847 0.099094 -0.874667
-0.0488897 -0.247597 -0.9905
0.0253037 0.0475115 -0.8935
0.0619302 0.0620142 -0.903
0.0163352 -0.14649 -0.993
-0.00475035 -0.180419 -1.0144
0.0895168 -0.00488885 -0.992333
0.0122112 0.0485585 -0.885
-0.0786258 0.0410843 -0.885
0.0386591 -0.190167 -1.00033
-0.0396029 0.108998 -0.865
-0.000103714 -0.378805 -0.929143
-0.0997333 0.0447221 -0.940364
0.044268 -0.374435 -0.9236
0.0679766 0.102772 -0.899
-0.0443301 0.0742147 -0.87
0.0106838 -0.175676 -1.00038
-0.0110062 -0.349675 -0.944
0.0784647 0.103141 -0.895
0.0260832 0.0691944 -0.86775
0.0450108 0.0496808 -0.895333
0.129866 -0.200292 -0.95825
0.0714746 0.0705123 -0.919333
0.0764731 -0.266173 -0.919
0.078944 0.0508782 -0.94
0.0842142 -0.310325 -0.939167
0.0485903 0.0698802 -0.885333
0.0852328 -0.315476 -0.9392
0.0351539 -0.371208 -0.930143
0.0493901 -0.350074 -0.9255
0.00537611 -0.0214159 -0.879875
-0.101776 0.10291 -0.9125
0.0259782 0.0306129 -0.890667
0.0944648 0.0702732 -0.929
0.100227 -0.245399 -0.927571
0.045832 -0.0597229 -0.922
0.0497144 -0.375411 -0.922625
0.0310093 -0.0410823 -0.904286
-0.021378 -0.0758646 -0.898
0.0648502 -0.0211293 -0.9235
0.0746265 0.0934233 -0.909
-0.0945532 0.0899295 -0.9043
-0.069091 -0.0154319 -0.913333
0.0449761 0.0994028 -0.889
0.075014 -0.165132 -1.002
0.0799358 -0.0505415 -0.999667
0.0643058 0.115756 -0.8795
-0.00356051 0.0686195 -0.86075
0.0267758 -0.0861485 -0.92975
-0.109537 0.0748315 -0.928333
-0.0338174 -0.046886 -0.903
0.0567395 0.0995854 -0.89875
-0.109416 0.0841893 -0.9192
0.0104475 0.0547922 -0.863667
-0.0578707 -0.400871 -0.953333
0.0705191 0.0986183 -0.898833
-0.0227157 -0.0135246 -0.892
-0.0490463 -0.0262015 -0.899333
-0.0498641 -0.222696 -1.014
0.0790176 0.100356 -0.884
-0.0302137 -0.110928 -1.003
-0.1084 0.10246 -0.915
0.0100454 -0.0517419 -0.894
-0.00605031 0.156129 -0.897
-0.104878 0.0989741 -0.9094
0.0451767 -0.355344 -0.928167
-0.118005 0.0218385 -0.971
0.13359 -0.102185 -1.064
0.106758 -0.103749 -1.044
0.0757243 -0.135725 -1.00287
0.133107 -0.397175 -0.936
0.0520458 0.0944499 -0.898
0.110593 -0.145138 -1.01837
-0.00955228 -0.000372061 -0.855
-0.114142 0.0363831 -0.9595
0.0654617 -0.389148 -0.904
-0.0195712 -0.03164 -0.887333
-0.040265 -0.0969657 -1.0045
0.0359449 -0.0154462 -0.89275
-0.0148372 0.0946822 -0.8648
-0.0346133 -0.075635 -0.923333
0.110363 -0.150308 -1.01589
-0.00432905 0.096578 -0.866
-0.0201886 -0.109645 -0.989
-0.0506209 -0.253674 -0.984
-0.0550926 0.08808 -0.878
-0.0486348 -0.0439449 -0.906
0.0650244 -0.375788 -0.929286
0.0605303 -0.265774 -0.926
0.0441511 0.103461 -0.886
-0.100586 0.0692074 -0.925
0.0107316 -0.042277 -0.887667
0.00989713 0.0941398 -0.8654
0.0199165 0.029124 -0.892111
0.10493 -0.390222 -0.9135
0.0608557 0.10319 -0.899
-0.108827 0.0945089 -0.914667
0.0149765 0.0945561 -0.86775
-0.00325939 -0.020855 -0.88
0.090513 0.0445813 -0.96
0.0443621 0.141488 -0.903
0.0601191 0.0997822 -0.905
0.0161282 0.171456 -0.929
0.065259 0.0999304 -0.9002
0.0535985 -0.111782 -0.975
-0.0601547 -0.0350115 -0.908167
-0.0259317 -0.130191 -1.01367
0.084651 0.101968 -0.912
-0.0996904 0.0992573 -0.908
-0.0225076 -0.145308 -1.015
0.0488941 0.0794674 -0.8905
-0.0150757 -0.376119 -0.95
-0.0598688 0.0961964 -0.874667
0.0498156 -0.356819 -0.9325
-0.0348031 -0.211301 -1.0245
0.079196 0.044583 -0.943
-0.0550937 0.0943541 -0.87375
0.0811523 0.0520676 -0.947
0.0849368 -0.233717 -0.947
-0.0405356 -0.175519 -1.07533
0.140042 -0.135157 -1.0224
0.050861 -0.0553218 -0.9275
0.0547756 -0.372494 -0.929333
0.000133509 -0.106663 -0.975
0.0393928 -0.355264 -0.9294
-0.05041 0.0943953 -0.8724
-0.0476314 0.0942225 -0.871
0.0350551 -0.377526 -0.921
-0.0447127 0.0948579 -0.872333
0.0291828 0.0945912 -0.8748
0.140518 -0.16497 -0.9985
0.0313036 0.0948922 -0.8775
0.138728 -0.165988 -0.996
0.0939011 0.00867899 -0.990667
0.0769719 -0.374103 -0.937
-0.0647373 0.159508 -0.918
-0.089638 -0.0153373 -1.0095
-0.0279608 0.0519204 -0.865
0.125315 -0.379797 -0.9745
-0.0675692 -0.0152054 -0.9
-0.0395298 0.00473734 -0.88875
-0.00471446 -0.305457 -0.949636
0.0467696 0.0981006 -0.8925
0.105122 -0.115397 -1.0275
0.0706655 -0.185211 -0.99725
-0.0351854 0.145305 -0.892667
0.0835921 0.0168981 -0.976
-0.0637241 0.010188 -0.9005
0.0707881 -0.19672 -0.9895
-0.0354257 -0.255871 -0.9735
0.0758808 -0.0406623 -0.9955
0.0328746 0.0642238 -0.871
0.0702903 -0.0300004 -0.9545
0.0755189 0.0986962 -0.897
-0.0135384 -0.0815064 -0.9078
-0.0249831 -0.295449 -0.956
-0.0991252 0.0997309 -0.905
-0.0236436 -0.159293 -1.0255
0.115732 -0.220064 -0.943857
0.0840076 0.0997849 -0.9135
0.086878 0.101173 -0.919
-0.0201112 -0.265161 -0.958125
0.104945 -0.0955817 -1.05367
0.0354296 0.0557952 -0.879
-0.0759979 0.0946059 -0.8875
0.116448 -0.146759 -1.0155
-0.0108773 0.149043 -0.8884
0.0797189 -0.200858 -0.9791
0.118579 -0.404642 -0.912
-0.0149018 -0.375822 -0.938
-0.0747583 0.0337547 -0.9084
-0.00928835 0.0401647 -0.8606
-0.0988837 0.104416 -0.905
-0.0703787 0.0942163 -0.884167
0.0516816 -0.0626591 -0.942
0.0297504 -0.3784 -0.922
-0.0230766 -0.15579 -1.02
0.0359494 0.0945818 -0.884
0.0756498 -0.355208 -0.945429
-0.0506662 0.0782515 -0.8725
0.0855079 -0.330643 -0.9375
-0.0341718 0.0547636 -0.862875
0.12135 -0.103838 -1.0535
-0.0627729 0.157492 -0.913
-0.0918622 -0.0154201 -1.015
-0.0281548 0.050792 -0.871
0.125015 -0.38113 -0.9688
0.050661 0.0944017 -0.894
-0.0523592 -0.177057 -1.0905
-0.0480479 0.0177764 -0.8955
0.0483171 0.143262 -0.904
-0.0954755 0.0844513 -0.909286
0.0846977 -0.245261 -0.93325
0.000138697 -0.160782 -1.00425
-0.0145454 0.0895355 -0.864545
0.0757778 0.0958084 -0.894
-0.0115364 -0.263298 -0.957
0.0608025 -0.310276 -0.927857
-0.0748266 0.0692566 -0.893
0.0882628 0.0993785 -0.917
-0.105213 0.0894717 -0.913875
-0.0562089 -0.015253 -0.903333
-0.0896062 0.0157009 -0.9535
-0.0905425 0.0947599 -0.903
0.116044 -0.196027 -0.964833
-0.0942954 0.0251509 -0.953714
-0.0253212 0.0137889 -0.8855
-0.0663371 -0.409295 -0.978
-0.0608722 0.149394 -0.905286
0.0885253 0.0549875 -0.950333
-0.0589948 -0.256125 -0.98525
-0.0147956 0.127001 -0.869
-0.00969814 -0.160992 -1.01
-0.047548 0.0635094 -0.871
0.127889 -0.238807 -0.951
-0.0198331 0.0789496 -0.863929
-0.0297237 -0.201808 -1.0306
-0.0251399 0.0894198 -0.863273
-0.0448155 0.111217 -0.8674
0.140773 -0.180445 -0.9686
0.0553524 0.0941265 -0.8985
-0.0692991 0.0857288 -0.880667
0.0772935 0.0323566 -0.94
-0.084764 0.0758389 -0.900667
0.0132508 -0.00274456 -0.855
0.0613481 0.0943809 -0.9045
0.0427248 0.000182643 -0.891
0.040283 -0.195407 -1.001
0.0542401 -0.00445461 -0.905
0.0648172 0.0959054 -0.904
0.0466894 -0.0723756 -0.949667
0.0308385 -0.0504511 -0.903889
0.127756 -0.0978306 -1.077
0.109794 -0.381506 -0.938167
0.100399 -0.374638 -0.953333
0.120229 -0.235201 -0.93375
0.07098 -0.0288017 -0.942
0.0202081 -0.0747747 -0.9035
0.0848774 0.093811 -0.909333
0.0399545 -0.229477 -0.97775
0.0640509 0.104198 -0.898
0.0898367 0.0962296 -0.917
0.0853473 -0.389472 -0.908
0.0349611 -0.250323 -0.953444
0.0352184 0.129565 -0.883143
0.0489258 0.100877 -0.89
-0.0612101 0.0633466 -0.8828
0.0136515 0.0513168 -0.88
0.0614882 -0.15323 -0.991
0.101013 -0.242577 -0.92925
-0.0603023 0.0933884 -0.878625
-0.0204879 0.0429452 -0.894
-0.0215087 -0.117176 -0.997667
-0.0513419 0.0890716 -0.8734
0.0506137 -0.335251 -0.915857
0.0456677 -0.00647178 -0.899
-0.0100508 -0.386519 -0.9184
-0.0447122 -0.0454372 -0.9049
0.0649901 -0.286391 -0.92775
-0.0486144 0.0895895 -0.869714
0.085506 0.0980985 -0.91
-0.0600765 -0.0399624 -0.903
-0.0450964 0.0906394 -0.8655
0.111408 -0.395367 -0.913
0.0153295 -0.125254 -0.984857
-0.00485733 0.0888199 -0.864273
0.0040295 0.164231 -0.907
0.0263326 -0.316793 -0.93
0.0153934 0.0895255 -0.867571
-0.091305 0.0387046 -0.937
0.0206854 0.0898983 -0.868333
-0.0152682 -0.0345288 -0.8836
0.0196119 0.0885462 -0.865
0.103938 0.0257385 -0.994
0.140287 -0.140739 -1.01957
-0.0196363 0.0389521 -0.89
-0.0603355 0.0893866 -0.882
-0.078435 0.115271 -0.885
-0.046287 -0.22412 -1.0125
0.0544753 0.0729348 -0.89475
0.0155124 -0.356968 -0.93725
0.0489579 0.0933098 -0.891
0.0595663 0.093629 -0.901
-0.0583845 -0.0407846 -0.91275
0.0831427 -0.143372 -1.006
-0.0912537 0.0197836 -0.953667
0.104753 -0.257193 -0.915333
0.0669368 -0.0313533 -0.938
0.0685439 -0.354494 -0.94
-0.0644018 0.130406 -0.87775
-0.0699609 0.122301 -0.877
0.0306962 0.14279 -0.88925
-0.0393313 -0.0354651 -0.894167
-0.0727977 0.0913641 -0.886
0.0201505 -0.0745581 -0.901
0.0614489 -0.0611394 -0.969
0.00511036 0.163205 -0.905
0.0245762 -0.315233 -0.93375
-0.0581931 -0.0460931 -0.90975
0.085159 0.0946669 -0.9146
-0.0694718 -0.00020013 -0.89975
0.0750211 -0.385585 -0.908375
-0.024607 -0.0149633 -0.887
-0.0553314 -0.240827 -0.999
0.0598174 -0.374625 -0.929889
0.00013126 -0.384487 -0.922
-0.0948348 0.093623 -0.907
0.0341028 0.0362053 -0.891
-0.115159 0.0930957 -0.932
0.0912004 -0.22661 -0.950429
0.113485 -0.194584 -0.972
-0.099185 0.10954 -0.8955
-0.0706666 0.09072 -0.884667
-0.123889 0.0440335 -0.964
-0.0648698 0.0908986 -0.882
-0.0180011 0.0394594 -0.884333
-0.06011 0.0890526 -0.87875
-0.0533985 -0.030144 -0.9054
0.00640861 0.166747 -0.912
0.0134474 0.0883291 -0.8655
-0.104824 0.0958417 -0.905
-0.0101952 0.0856587 -0.861
0.0284339 0.088881 -0.8705
0.0486092 0.0600558 -0.886
0.0349006 0.0887573 -0.8785
0.0758615 -0.369865 -0.945333
0.0713491 -0.0949677 -0.997667
0.0584959 -0.0565707 -0.948
-0.0592438 -0.0397964 -0.908
0.076832 0.0941483 -0.913
0.0661493 -0.0304125 -0.942
0.0715594 -0.355706 -0.9446
-0.0690269 0.123489 -0.8745
0.0104489 0.0695638 -0.863333
-0.076134 0.0810434 -0.89
0.103522 -0.21824 -0.9525
0.082011 0.0947057 -0.918
-0.0903806 0.0896955 -0.899
0.0575532 0.0483198 -0.908
0.0604041 0.0901528 -0.905125
0.0343303 0.137829 -0.8845
0.166938 -0.143567 -1.027
0.0557736 -0.255197 -0.939111
-0.0499667 0.0246089 -0.898364
0.169279 -0.14583 -1.03
0.0896131 -0.183973 -0.997
0.0753804 0.0917711 -0.905
-0.0447946 0.0196928 -0.898143
0.0205927 0.00535612 -0.883857
-0.117472 0.088423 -0.925
-0.0403142 -0.285185 -0.958
-0.113786 0.0939121 -0.929333
-0.0572205 -0.239745 -1.002
-0.104759 0.0794714 -0.919
0.0500303 0.07446 -0.8892
0.0645221 0.00526214 -0.91375
-0.103008 0.090852 -0.91
-0.0809557 0.0881775 -0.892
-0.0356966 -0.11079 -1.00825
0.019245 0.170718 -0.925
0.0407712 -0.271389 -0.930333
-0.0490695 0.0833836 -0.8706
0.0298287 0.0643731 -0.869
-0.0798696 0.0401953 -0.899
0.00977143 0.0506804 -0.8695
0.0643109 -0.0927166 -0.986
0.125484 -0.187892 -0.969333
0.0269901 0.0912737 -0.872
0.0844582 -0.326887 -0.93575
-0.0475738 0.0732351 -0.871
-0.00155533 -0.116487 -0.987
0.072497 -0.23672 -0.946
0.0203813 0.12479 -0.874417
-0.00405655 -0.366251 -0.944
-0.0435317 -0.192759 -1.056
0.0616266 -0.0266282 -0.923
-0.0804929 0.130782 -0.907333
0.0798226 -0.360842 -0.94925
0.0748409 0.0534633 -0.929
0.0223807 0.0848047 -0.867333
0.0342793 -0.068926 -0.908
0.0945581 -0.220203 -0.954111
0.0252723 -0.0556574 -0.8976
0.0622944 0.0903655 -0.907
0.0655477 0.0892668 -0.909
-0.0702954 -0.408466 -0.985
0.0834447 0.0560288 -0.945
0.0261893 -0.064239 -0.897
0.05004 0.0313954 -0.913
0.0509462 -0.232168 -0.965667
0.130095 -0.14033 -1.01922
0.0673262 0.0908636 -0.912
-0.0687978 -0.410921 -0.9885
0.0710553 0.0897194 -0.914
-0.0813895 0.0778796 -0.8975
0.0818785 0.0905378 -0.908
0.086915 0.0893351 -0.9035
0.100164 -0.145126 -1.01729
-0.018025 -0.277209 -0.945
-0.110433 0.0884873 -0.917571
-0.028289 -0.0735592 -0.898
-0.061879 0.152148 -0.9
-0.0227545 -0.393898 -0.912
0.0346381 -0.31047 -0.934333
-0.0746757 0.0841477 -0.888667
-0.0647046 0.0846341 -0.879889
-0.084185 0.047043 -0.912
0.0346066 0.0846785 -0.876
0.0766745 -0.0355266 -0.995
0.0738959 -0.0458292 -0.9892
0.0516205 0.0878394 -0.8975
0.0687757 0.0883725 -0.9105
-0.00505634 0.0792933 -0.864375
-0.0409419 0.074412 -0.867333
-0.0502862 -0.274686 -0.962667
0.080701 0.0887139 -0.92375
0.0295384 -0.275203 -0.935
-0.0964978 0.0874903 -0.908
-0.050701 0.0981182 -0.872
-0.0805183 0.0839157 -0.893
-0.078715 0.0843896 -0.89
-0.0288697 -0.0942979 -0.9685
-0.126151 0.0500672 -0.968667
0.00758193 0.0390018 -0.874
0.0866745 0.0867674 -0.901
0.0889055 0.0874416 -0.908
0.0711742 -0.0573253 -0.989
-0.0163554 0.0129148 -0.8775
-0.0247948 -0.185103 -1.03456
0.0635111 0.0496765 -0.904
0.0199904 -0.254738 -0.951
-0.119897 0.0882422 -0.931
0.0399028 -0.211592 -0.994875
-0.104841 0.0840179 -0.917222
-0.00558082 0.0540562 -0.86075
-0.00393217 0.0557918 -0.862
0.0148946 -0.275485 -0.939
0.0154005 0.145885 -0.888667
0.0113514 0.0399539 -0.8886
-0.0044395 -0.0697759 -0.889375
-0.0293353 0.0793602 -0.860625
0.0406444 -0.0403517 -0.900667
-0.0104216 -0.0307027 -0.8823
-0.0410518 -0.0135465 -0.893
-0.0148133 0.0788576 -0.8644
-0.0110081 0.0818033 -0.867
0.0547882 -0.0659046 -0.954
0.0942253 -0.399855 -0.9005
0.0381498 0.0488771 -0.890333
-0.118107 0.0841059 -0.93
0.0572346 -0.0618251 -0.954
0.011984 0.0802978 -0.867
-0.120284 0.0829063 -0.9345
-0.00420635 -0.211921 -1.006
-0.00370871 -0.0580725 -0.897
0.0410357 -0.0461777 -0.909333
0.0291353 -0.393146 -0.898
0.0253343 -0.0711699 -0.8992
0.00969338 0.00954858 -0.853857
0.0705761 -0.316096 -0.929286
-0.0429213 -0.382295 -0.968
0.0308521 -0.394938 -0.894375
0.0255809 -0.0696034 -0.893667
-0.0637624 -0.19621 -1.0745
0.00656601 -0.395842 -0.896
-0.0193755 -0.0407373 -0.8955
0.066727 -0.38205 -0.915333
0.0102355 0.010297 -0.847
0.0655285 0.0845668 -0.909167
-0.0442462 0.0556026 -0.869286
0.0705943 0.0847811 -0.914
0.0310482 -0.0699306 -0.904333
0.0357505 -0.385308 -0.904333
-0.0288709 -0.0379758 -0.8935
-0.0331202 -0.135506 -1.0205
0.0405615 0.0737516 -0.8795
0.0752616 0.0851891 -0.91825
0.0204292 -0.0813119 -0.913167
0.00609832 0.13774 -0.87
0.0254591 -0.125257 -0.984714
0.00528751 0.0843967 -0.863167
0.014929 0.0846304 -0.865556
0.0853083 0.0869801 -0.92
0.0861751 -0.202317 -0.975
0.0894417 0.0853313 -0.919
0.00481122 -0.0873313 -0.913
0.097231 -0.20746 -0.966
0.0710018 -0.21651 -0.9694
0.0393958 -0.209099 -0.99875
-0.0586486 0.058595 -0.87525
0.00491682 -0.110804 -0.977429
-0.0307734 -0.19932 -1.03433
0.0199348 -0.330547 -0.923429
0.100197 0.0192028 -0.993833
-0.0649505 0.0802237 -0.8835
-0.0619091 0.162498 -0.923
0.0958333 -0.196894 -0.976
-0.0647659 0.0816959 -0.881
0.0801287 0.0786299 -0.927667
0.00537136 -0.0253341 -0.879
0.0708631 -0.072247 -0.992
0.00598165 -0.108444 -0.976
-0.119224 0.0137525 -0.988
-0.0445724 0.079161 -0.870375
0.0456967 -0.0147202 -0.898143
-0.00824463 -0.355182 -0.946
0.0159888 0.153855 -0.8995
0.156311 -0.128686 -1.033
0.0192496 0.0241763 -0.8894
0.0416279 0.0791989 -0.882
0.0691262 -0.0425292 -0.961
-0.0990473 0.140069 -0.944
0.0754444 0.0290472 -0.937
0.133183 -0.220243 -0.9555
-0.084738 0.069257 -0.9005
0.0783772 0.0989319 -0.894333
0.0848944 0.0841948 -0.924167
-0.0615721 -0.263867 -0.984
0.0657592 0.0443493 -0.91375
0.091745 0.0870185 -0.937
0.0698401 -0.015037 -0.9375
0.000124153 -0.0846307 -0.909667
0.125403 -0.209484 -0.9485
-0.0798573 0.0804976 -0.894
0.0869505 -0.0953195 -1.013
0.000117661 0.0619811 -0.861
-0.0597197 -0.245382 -0.999
-0.0781675 0.0790103 -0.89
0.0101466 -0.0454542 -0.880667
-0.00435324 -0.0172182 -0.873333
-0.119645 0.0736783 -0.93
0.0956728 -0.164862 -1.00789
0.0463892 -0.336726 -0.917
-0.0147212 0.107559 -0.866
0.145668 -0.161627 -0.9998
-0.0299474 0.050313 -0.88
0.0690616 -0.070442 -0.9905
-0.033761 -0.0981317 -0.99
0.0562177 -0.0200761 -0.912
0.116779 -0.216747 -0.945
-0.0248109 -0.275942 -0.952333
0.0432523 -0.0167648 -0.902
-0.00996231 -0.355 -0.95
0.00472814 0.152215 -0.892667
0.0144519 0.0782979 -0.867
0.0439925 -0.0483966 -0.917
0.0345403 -0.344019 -0.925
-0.034583 -0.0256388 -0.889143
0.0590746 0.124517 -0.8844
0.145066 -0.164622 -0.997667
-0.0916812 -0.0101905 -1.013
-0.0103793 -0.175175 -1.01911
0.0477975 -0.373047 -0.922
0.0622944 0.0965847 -0.907
0.094419 -0.126007 -1.0202
0.0300978 -0.395962 -0.889
0.054634 -0.079354 -0.975
0.0792857 0.102219 -0.887
0.0228906 -0.0689101 -0.888
0.0665875 0.0830989 -0.913
0.0406623 -0.394193 -0.884
-0.0275809 -0.124574 -1.011
-0.0449272 0.053001 -0.8726
0.091313 0.0850085 -0.933
-0.0547129 0.0196657 -0.899889
0.00508068 -0.266718 -0.946
-0.0256509 0.076774 -0.861
0.0302788 -0.105347 -0.978111
0.0606646 -0.110314 -0.98775
0.029181 -0.387304 -0.901
0.02517 -0.0596438 -0.8975
0.055419 -0.0699673 -0.965
0.000117818 0.0743608 -0.8639
0.0593676 -0.391809 -0.891
0.0898444 -0.196209 -0.978778
-0.0343543 -0.406402 -0.9135
0.0630412 -0.208988 -0.983
-0.0323073 -0.070879 -0.903
0.0587153 0.0788498 -0.900667
0.0711871 -0.180553 -0.998
0.0106101 0.0294131 -0.878
-0.0832119 0.0588497 -0.901
0.132958 -0.212397 -0.955
-0.0574257 0.131981 -0.881
0.091805 0.0801402 -0.914
-0.0963553 0.0626873 -0.923
0.0773717 0.0645854 -0.94
0.0785236 -0.248137 -0.937
-0.0411089 0.12166 -0.8735
-0.00960449 -0.316279 -0.945286
-0.056507 0.0711808 -0.8825
0.00511977 -0.37889 -0.932333
-0.0159019 0.0252228 -0.88
0.00989212 -0.11693 -0.9822
0.0793267 -0.245237 -0.9375
-0.0937024 0.0309432 -0.945
0.119413 -0.124405 -1.0275
0.0658533 0.0702193 -0.90875
-0.018583 -0.241529 -0.981
0.0159816 -0.0141741 -0.885
0.0896305 -0.330497 -0.9395
0.0723499 -0.0417993 -0.982
0.0445433 0.0664617 -0.8805
0.0944068 0.0587322 -0.949
0.0101501 -0.374579 -0.9376
0.0183306 0.0558188 -0.864333
-0.0593677 -0.0498448 -0.924
-0.0193604 -0.276104 -0.95
-0.0446651 0.0793269 -0.872
-0.120679 0.0121199 -0.993
-0.108826 0.0807486 -0.92
-0.065354 0.077868 -0.889
-0.0557197 0.0744689 -0.878625
0.154529 -0.10705 -1.0745
-0.000191313 -0.0944437 -0.9276
-0.0607373 -0.243384 -1.002
-0.0326544 -0.0883559 -0.958
-0.0942743 0.0766695 -0.91
0.050385 -0.126308 -0.983
-0.0351579 0.0397576 -0.885167
-0.0509496 -0.0555987 -0.914667
0.0297215 -0.356037 -0.93275
0.119893 -0.12029 -1.0336
-0.0086942 -0.0976922 -0.937
0.0643311 0.06519 -0.904167
0.0709331 -0.0762839 -0.992667
-0.0156357 -0.244454 -0.978286
0.058737 0.081965 -0.901
0.0181181 -0.325326 -0.927
0.0434648 -0.0439449 -0.906
0.0920561 0.0226299 -0.982667
-0.0249655 0.0739802 -0.862778
0.0464295 0.0541015 -0.88825
0.010262 -0.125587 -0.984667
-0.0146621 0.0741041 -0.864222
0.0189127 0.053572 -0.88
0.0357602 0.139724 -0.8885
-0.059109 0.0194228 -0.9005
0.0499824 0.010469 -0.903
-0.00284846 0.0832874 -0.867
0.110211 -0.389339 -0.919
0.0232407 -0.263995 -0.947
-0.114003 0.00472465 -0.989667
0.0283672 0.0745425 -0.869333
-0.080932 0.121298 -0.895333
0.0802691 -0.370233 -0.9475
0.0196522 0.0197195 -0.88875
0.0877572 0.0948958 -0.912
0.0645813 0.103557 -0.894667
0.020865 -0.150552 -0.993857
-0.068352 -0.204427 -1.073
0.054251 0.134777 -0.899667
-0.11919 0.084539 -0.926
-0.0554691 0.0492739 -0.878667
0.129401 -0.386891 -0.93925
0.0649521 0.0785252 -0.908667
-0.0585608 -0.19707 -1.064
-0.0702119 -0.400063 -0.9855
0.00552171 -0.301319 -0.9455
0.0701019 -0.254559 -0.933
-0.0639545 -0.0200156 -0.909
0.070707 0.0789908 -0.9198
-0.023431 -0.396429 -0.9055
-0.0296205 -0.0705334 -0.90375
-0.0584033 -0.0444961 -0.901
-0.0647552 0.146091 -0.904667
-0.070438 0.119849 -0.884571
-0.0444886 0.0842167 -0.8685
-0.0391534 -0.0639212 -0.907
0.0553514 -0.330978 -0.918333
0.00650074 0.0551888 -0.862167
-0.0848889 0.0700754 -0.902
-0.031567 -0.329608 -0.9595
0.00564504 0.0337176 -0.8635
-0.014444 -0.40153 -0.901
0.091374 -0.150351 -1.01317
-0.0250377 -0.0160521 -0.884333
0.0801578 -0.109967 -1.00333
0.114261 -0.253882 -0.919
-0.0250201 -0.310141 -0.954889
-0.11991 0.0785752 -0.933375
-0.0299841 0.137707 -0.875667
-0.0399046 -0.195568 -1.05025
0.0614796 0.114608 -0.8825
-0.0531625 -0.261627 -0.9746
-0.0655516 0.037286 -0.904
0.0698797 -0.346999 -0.937
-0.00532255 -0.0838833 -0.91
0.0115834 0.0294504 -0.8836
0.0949495 -0.395026 -0.904286
0.0379213 0.0432893 -0.885
0.0452296 0.0780133 -0.8846
0.054756 0.0058564 -0.905
-0.0593701 0.0740045 -0.87975
0.0438386 0.0748299 -0.881
0.0459411 0.0741247 -0.884143
0.0828957 -0.365597 -0.9495
-0.0615034 0.133997 -0.874
0.0896867 0.0790539 -0.938667
0.00507724 -0.280152 -0.943222
0.0888654 0.078801 -0.935667
0.0939808 -0.245206 -0.932571
0.0104012 -0.165459 -0.995
-0.0697546 0.00482655 -0.9044
0.0293355 0.148598 -0.894
0.0556184 -0.0260114 -0.9124
-0.0497618 -0.19948 -1.0525
0.0748127 -0.256418 -0.930429
-0.0702457 0.0544991 -0.889667
-0.0843277 0.100023 -0.894556
0.0929127 0.0802076 -0.933
0.0995926 -0.237947 -0.936
-0.103273 0.109892 -0.911
-0.00297617 0.164553 -0.9
0.110939 -0.254283 -0.9182
-0.0333507 -0.267772 -0.96
0.0605559 -0.225424 -0.9635
0.128817 -0.209709 -0.943
-0.0809396 0.0740912 -0.898333
-0.0244345 0.050792 -0.871
-0.0786946 0.074121 -0.895
0.0645475 0.0745466 -0.9046
-0.0747909 0.103574 -0.887667
-0.029539 -0.136009 -1.01771
-0.0704296 -0.40395 -0.988
-0.0885635 0.108873 -0.89375
0.114486 -0.189809 -0.973571
-0.0490746 -0.255743 -0.97975
-0.0384354 -0.398728 -0.9145
-0.014217 0.1421 -0.878
0.000135672 -0.124269 -0.985667
-0.0678505 -0.400029 -0.976
-0.0627158 -0.233836 -1.007
-0.0504039 -0.06649 -0.943
-0.0453878 -0.389968 -0.944
-0.0345312 0.0698682 -0.862125
0.075848 -0.154996 -1
-0.115255 0.0119983 -0.9835
-0.0293929 0.069552 -0.862778
-0.0498339 -0.0457897 -0.909286
0.0612928 -0.0139323 -0.918
-0.0146434 0.0695828 -0.863556
0.0668651 0.140869 -0.924
0.000118879 0.0696091 -0.863889
-0.0210927 -0.229967 -0.994
-0.0609014 -0.249795 -0.994
0.0258293 0.00925831 -0.886
0.0599438 -0.16048 -0.993222
0.0952326 0.0683738 -0.925
0.101106 -0.247086 -0.9255
0.00378573 0.0346733 -0.859667
-0.00990616 0.137582 -0.875333
0.0549375 -0.155299 -0.992125
0.0138001 -0.0423881 -0.89
0.0295414 0.0692958 -0.869889
-0.0599264 0.161442 -0.917
-0.046425 -0.179617 -1.083
-0.0662692 -0.407128 -0.977
0.000131804 -0.389549 -0.914
0.0225224 -0.179796 -1
-0.0446094 -0.081036 -0.96875
-0.0242687 -0.0664218 -0.899857
-0.0352036 -0.0428371 -0.899
0.0568203 -0.273639 -0.926
0.0746657 -0.145467 -0.999
0.066027 0.0744178 -0.909333
0.0855208 0.0781406 -0.934333
0.0793537 0.0758605 -0.92975
0.0868925 -0.254509 -0.929
0.0300601 -0.279555 -0.936
-0.0520368 -0.208582 -1.042
0.10244 -0.335812 -0.964333
-1.50648e-05 0.0344693 -0.859545
-0.040822 -0.00588696 -0.888
-0.0681698 0.00406804 -0.908
0.0748808 0.046332 -0.93
0.0934107 0.0774197 -0.938
0.0998388 -0.235265 -0.938778
0.0931956 0.075934 -0.92
0.0202279 -0.0256217 -0.889
-0.00493298 -0.244842 -0.972889
0.0498819 -0.0551123 -0.924
0.054608 -0.373014 -0.926
-0.00154194 -0.107101 -0.979
0.0415019 -0.357362 -0.932
-0.0247476 -0.0058495 -0.883
-0.122676 0.0761662 -0.941
-0.084128 0.119223 -0.8944
-0.0639091 -0.203001 -1.061
-0.119229 0.0755187 -0.933
0.00479572 -0.0847084 -0.9105
0.0562566 0.152595 -0.932
0.0117538 -0.3552 -0.936
0.0521643 0.0614314 -0.895
0.150978 -0.106503 -1.069
0.137697 -0.384743 -0.974
0.0654947 -0.0122691 -0.911
-0.0193078 -0.0257313 -0.885286
-0.046 0.0993938 -0.868
0.0707462 0.139083 -0.928
-0.00435897 -0.216782 -1.0008
0.0746341 0.0636235 -0.926
0.0314368 0.0702956 -0.872
-0.0420965 -0.117743 -1.027
-0.0591923 0.159039 -0.914167
0.0299588 -0.335634 -0.919889
0.0684445 0.0731911 -0.907
-0.0597015 0.129188 -0.8744
-0.051684 0.155673 -0.912
0.089938 0.0742105 -0.938667
0.0956309 -0.239048 -0.93725
0.00489518 -0.254465 -0.958429
-0.0609815 0.129975 -0.8775
0.0904193 0.0739478 -0.935333
0.0943974 -0.241493 -0.935
-0.123718 0.0751836 -0.949
0.105809 -0.130381 -1.0245
-0.0307289 -0.0738869 -0.902
-0.0245368 -0.395323 -0.908143
0.0361679 -0.312781 -0.931
0.0714685 0.0414247 -0.927
0.0148954 0.069653 -0.864444
-0.100145 0.0842989 -0.913
-0.0345481 -0.00585052 -0.883111
0.0254944 -0.12833 -0.986
-0.0296209 -0.0802197 -0.9252
-0.0242352 -0.385692 -0.9245
-0.0883704 0.0690402 -0.906
0.108905 -0.263846 -0.913
-0.101685 0.130336 -0.939
-0.00906679 0.0442763 -0.8605
0.0748572 0.123411 -0.899667
0.0166731 0.167296 -0.915
-0.0144338 -0.386859 -0.919714
-0.116048 0.0493029 -0.954333
0.0619624 -0.183617 -0.996
-0.0085787 -0.00924859 -0.849
0.0550425 0.068904 -0.894625
0.064298 0.134862 -0.913714
0.0251695 0.0854551 -0.874
-0.00155182 -0.365951 -0.95
0.0149547 -0.286482 -0.941
-0.0809087 0.0695326 -0.8994
-0.0545885 0.00860401 -0.89575
-0.0109779 -0.126376 -0.997667
0.156569 -0.108393 -1.069
0.0258418 0.0841787 -0.869571
0.0510715 -0.279733 -0.930429
-0.0413986 0.0684093 -0.867
-0.098956 0.021007 -0.959333
0.0685637 -0.309495 -0.925
-0.0190156 0.0679035 -0.861
0.113152 -0.376646 -0.96
0.0514535 0.0692603 -0.8928
0.0746851 0.0865514 -0.916
0.169946 -0.115468 -1.06475
-0.123197 0.0732434 -0.945
0.0269488 -0.0504208 -0.89725
0.0145024 -0.0900428 -0.92075
0.0312734 -0.0055671 -0.886
-0.00578161 0.0698862 -0.86275
0.029273 -0.006257 -0.88725
-0.0404476 -0.17883 -1.073
0.0489585 0.148315 -0.916
-0.0946572 0.0698989 -0.915
0.0840676 -0.224262 -0.9575
0.084459 0.0909199 -0.928
0.164471 -0.125912 -1.03917
0.165273 -0.140198 -1.024
-0.0902473 0.0687675 -0.90925
-0.112643 0.0955231 -0.924
0.0229796 -0.274091 -0.934
-0.0746392 0.0681028 -0.891
-0.0920432 -0.0119706 -1.017
-0.0444373 0.0643593 -0.8684
-0.0249399 0.0645187 -0.862273
-0.100327 0.134297 -0.9382
-0.114235 0.0844027 -0.92475
-0.0146002 0.0639773 -0.861
-0.06828 -0.226745 -1.04
0.0953972 -0.372466 -0.955
-0.0499119 0.154527 -0.908333
-0.0101953 0.064289 -0.862
-0.101516 0.125702 -0.923
0.0456342 -0.275363 -0.929333
0.071092 0.135285 -0.924
-0.00518961 0.0641799 -0.862533
-0.0417375 -0.0603022 -0.907
-0.00282586 0.0664311 -0.861
0.074605 0.119603 -0.890667
0.00528437 0.0644143 -0.863688
-0.0638824 -0.26116 -0.994
0.0150945 0.0798586 -0.865889
0.00529 0.0792638 -0.864063
-0.0154659 -0.319505 -0.9428
0.0390562 -0.0636838 -0.911
0.0686206 0.0687058 -0.909333
0.109491 -0.21064 -0.9548
-0.0210007 -0.379524 -0.9495
0.0766283 -0.388945 -0.907
-0.0095018 -0.0514911 -0.889667
0.0685678 -0.0757075 -0.9898
-0.0454432 0.0763919 -0.873
0.128151 -0.148897 -1.017
0.0698669 0.0777937 -0.915
0.0496769 -0.141395 -0.989167
0.0539137 -0.0357879 -0.9152
0.0780976 0.069435 -0.92925
0.0852033 -0.251066 -0.928875
-0.0688773 -0.00595147 -0.897
0.0906113 -0.385989 -0.918
0.035362 -0.195321 -1.001
-0.0873038 0.036766 -0.929
-0.114981 0.0694433 -0.938
0.0673078 0.0142541 -0.914
-0.0568958 0.027934 -0.902
0.129555 -0.101442 -1.064
0.0155844 -0.166045 -0.998
-0.110669 0.0685636 -0.933833
0.0748736 -0.386661 -0.906
0.0501507 -0.191291 -0.999889
-0.0681084 0.065402 -0.885667
-0.0598307 0.124637 -0.875
-0.0541246 0.0652362 -0.8758
0.0714649 -0.0660549 -0.9925
0.0849682 -0.171244 -1.00444
0.0997385 -0.134854 -1.02
0.064219 -0.000594262 -0.915
-0.0192609 0.0637319 -0.861
0.0118921 0.0642226 -0.861
-0.0678695 0.0102336 -0.904
0.0990207 -0.270947 -0.914143
-0.0150717 -0.0423722 -0.889667
-0.0591783 -0.409992 -0.9595
-0.00423533 -0.201105 -1.0145
0.0510721 0.149282 -0.9196
-0.0958892 0.067896 -0.918
0.049706 -0.160527 -0.993889
-0.0296273 -0.285363 -0.953
0.00977795 -0.271036 -0.94075
-0.019509 -0.0292736 -0.884667
0.0897896 -0.365959 -0.964
0.00614055 -0.322243 -0.93
-0.0246224 0.13369 -0.872917
-0.0702772 0.0638675 -0.888429
0.0520477 0.0643497 -0.893
0.0556754 0.0795521 -0.899091
0.0903708 0.0691121 -0.944
0.095237 -0.234372 -0.942333
0.0551116 0.0443212 -0.90825
-0.0114345 -0.277502 -0.946
0.077458 0.0348428 -0.942
-0.08492 0.0736587 -0.902333
