ply
format ascii 1.0
comment Created by Open3D
element vertex 825
property double x
property double y
property double z
property double nx
property double ny
property double nz
end_header
0.116429 0.116347 -1.10388 0.80357 0.111423 -0.584689
0.111532 -0.305785 -1.03556 0.608375 0.066914 -0.790824
0.00470411 0.126994 -1.13716 -0.1273 0.324942 -0.937127
0.182659 -0.0513573 -0.95265 -0.932333 -0.359529 -0.0386581
0.109777 0.0167648 -1.11733 0.605373 -0.635387 -0.479382
0.0281641 0.112121 -1.14123 -0.0156027 0.352678 -0.935615
0.0374919 0.0391072 -1.15585 -0.279734 -0.396507 -0.874375
0.134525 0.0451059 -1.10925 0.84162 -0.329687 -0.427764
0.204253 0.119879 -1.06536 -0.0519381 -0.591093 0.80493
-0.0348051 -0.0735281 -1.07254 -0.200525 -0.643643 -0.738589
0.175517 -0.138255 -1.02921 -0.0483697 -0.739002 0.671965
-0.00394904 -0.314515 -1.05762 -0.769093 0.233479 -0.594965
0.0312404 0.150321 -1.1284 0.169509 0.550388 -0.81752
0.07956 -0.0474256 -1.07494 0.321426 -0.0102255 -0.946879
0.11978 0.084125 -1.12617 0.589181 0.375332 -0.715536
0.0927887 -0.356596 -1.02397 0.879616 -0.12007 -0.460281
0.0297759 -0.0843276 -1.05741 -0.289498 -0.665258 -0.688202
0.141121 0.122158 -1.07545 0.508039 0.225078 -0.831406
0.0904243 -0.107282 -1.05977 0.325718 -0.0986716 -0.940304
0.131528 0.143396 -1.09504 0.709493 0.423849 -0.563002
0.129975 0.0163196 -1.05053 0.623543 -0.677817 -0.389561
0.063375 0.0924862 -1.15039 0.171277 0.391032 -0.9043
0.106001 0.00137396 -1.06336 0.680795 -0.649219 -0.339166
0.0291117 -0.022256 -1.10082 0.221986 -0.164239 -0.961118
0.188342 -0.0693007 -0.996733 0.74307 -0.0305339 -0.668516
0.0995476 0.0388655 -1.13909 0.576809 -0.377972 -0.724175
-0.0020847 0.106366 -1.14595 0.00427272 0.4679 -0.883771
0.193092 -0.204418 -1.03449 -0.584278 0.730221 0.354115
0.0830444 0.171022 -1.09646 -0.442026 -0.777615 0.447133
0.0311937 -0.05752 -1.08282 0.104618 -0.532984 -0.839633
-0.0426958 0.110496 -1.1377 -0.485808 0.294089 -0.823105
0.188262 -0.140558 -1.03382 0.0946318 -0.768292 0.633066
-0.0590336 0.110895 -1.12172 -0.688857 0.214107 -0.692556
0.079722 -0.030656 -1.07634 0.303573 0.053179 -0.951323
0.00617113 0.0116106 -1.10722 -0.0252142 -0.353241 -0.935192
-0.0580885 0.0520417 -1.12265 -0.532007 -0.170962 -0.829301
0.205304 -0.13395 -1.00465 -0.649115 -0.760517 -0.016238
-0.0207738 0.148453 -1.11852 -0.481698 0.526422 -0.700605
0.171661 0.119826 -1.07043 0.167003 0.588173 -0.791305
-0.0292024 0.087829 -1.14352 -0.497713 -0.236789 -0.834394
0.166301 0.12284 -1.06404 0.106125 0.445524 -0.888958
-0.00571657 -0.0219814 -1.10538 0.0634072 -0.26021 -0.963468
0.0484929 0.0599991 -1.15766 0.0912575 0.00538597 -0.995813
0.018482 0.0918004 -1.15426 0.0420503 0.405873 -0.912962
0.121471 0.0242321 -1.10921 0.662899 -0.555296 -0.502207
0.182881 0.0490769 -1.05545 0.51788 -0.422567 -0.743799
-0.0675599 0.0921353 -1.10869 -0.771103 -0.0603018 -0.633849
0.152439 0.117136 -1.07172 0.0649803 0.371848 -0.926016
-0.0181293 0.0163309 -1.11512 -0.0223671 -0.231236 -0.972641
0.117939 0.0250005 -1.11506 0.637684 -0.530985 -0.558045
0.0372761 0.049342 -1.15748 -0.164428 -0.174058 -0.97091
0.149471 0.11657 -1.0701 0.089927 0.384083 -0.918909
0.192047 -0.183052 -1.0674 0.53326 -0.409054 -0.740479
0.125272 0.116322 -1.09124 0.809764 0.0420553 -0.585246
0.166943 0.0979326 -1.08195 0.217451 0.00149385 -0.97607
0.160512 0.00654629 -0.976558 -0.907004 0.398784 0.135335
-0.0758249 0.00316049 -1.06727 -0.478613 -0.00489987 -0.878013
0.108142 -0.075654 -1.06167 0.534351 -0.00248887 -0.845259
-0.0207889 -0.375718 -1.03035 0.645864 -0.707768 0.286225
0.134892 0.11706 -1.07382 0.673034 0.206768 -0.710121
-0.00696522 -0.219239 -0.952021 -0.738815 0.59207 -0.321878
-0.0366395 0.104992 -1.1383 -0.469835 0.145334 -0.870709
-0.0469761 0.104709 -1.13108 -0.580868 0.0506682 -0.81242
-0.0789853 0.0524176 -1.09062 -0.810051 -0.330323 -0.484463
0.176879 0.138621 -1.05745 0.295264 0.692931 -0.657773
0.00522913 -0.409914 -1.09429 0.28061 -0.322197 0.904128
0.123304 0.152377 -1.06399 0.692645 0.704364 -0.155284
0.143911 0.0378035 -1.06653 0.707259 -0.561824 -0.429113
-0.0166297 -0.375233 -1.03881 0.612909 -0.678516 0.404918
0.132803 0.115483 -1.08087 0.733115 0.0936463 -0.673626
0.130044 -0.18688 -1.06211 0.304796 -0.677351 0.669548
0.00548715 -0.220687 -0.978358 -0.69715 0.599669 -0.392911
0.167765 -0.0307171 -0.964818 -0.869597 -0.450652 0.201778
-0.0616879 0.102723 -1.11802 -0.738212 0.0380807 -0.673493
0.175591 0.0887706 -1.07591 0.414016 -0.224349 -0.882189
0.117551 -0.085273 -1.05679 0.639711 0.0688725 -0.765524
0.140418 0.0421916 -1.07294 -0.869989 0.344341 0.352915
0.142653 -0.0434746 -1.01183 0.551683 -0.0930875 -0.828843
0.160989 -0.0623325 -1.00048 0.378264 -0.0800588 -0.922229
0.192763 0.0899288 -1.06252 0.360627 -0.307235 -0.880656
0.134601 0.0239625 -1.05214 0.609817 -0.67742 -0.41137
0.0613861 0.100387 -1.14612 0.201076 0.386881 -0.89994
-0.0531531 0.0955802 -1.12509 -0.661562 -0.107157 -0.742195
-0.0276738 -0.235488 -0.930316 -0.77067 0.573415 -0.277962
0.188856 0.142036 -1.0308 -0.424373 -0.808572 0.407577
0.0523052 0.0995629 -1.14737 0.0652356 0.36068 -0.930406
-0.0449004 0.0771918 -1.12705 -0.492015 -0.266696 -0.828731
-0.0108817 0.153655 -1.11782 -0.495927 0.506315 -0.705479
-0.0417033 0.102395 -1.13362 -0.554059 0.0657161 -0.82988
0.0973077 -0.316025 -1.0448 0.525782 0.246452 -0.814134
0.118495 -0.0954657 -1.05602 0.492512 -0.0595149 -0.868268
0.118151 -0.332675 -0.992538 -0.927249 0.357009 0.11293
-0.0263102 0.0154634 -1.11619 -0.0885084 -0.229542 -0.969266
0.0748217 0.110032 -1.13756 0.421713 0.323248 -0.847153
0.211989 0.0631381 -1.05738 0.383747 0.473839 0.7926
-0.0199711 0.15049 -1.11139 -0.5138 0.573573 -0.637984
0.0307481 -0.219313 -1.02312 0.684205 -0.663302 0.303139
0.100544 0.146257 -1.10275 0.551386 0.610316 -0.56876
0.130911 0.0141242 -1.04476 0.581903 -0.591681 -0.557945
0.0970312 0.103658 -1.12461 0.538134 0.420538 -0.730452
-0.0832841 0.0212813 -1.06602 -0.504075 -0.0445738 -0.862509
0.0385585 -0.0434932 -1.08673 0.299479 -0.427329 -0.853054
0.0352053 0.0782169 -1.15762 0.0863099 0.173618 -0.981024
0.195263 0.0787947 -1.05481 0.0146307 -0.310192 -0.950561
0.110083 -0.156261 -1.05103 0.145662 -0.0155322 -0.989213
0.0765934 0.029007 -1.14521 0.229942 -0.512919 -0.827067
-0.0298707 0.092685 -1.14542 -0.480597 -0.0867663 -0.872639
0.12421 0.0171703 -1.07299 0.645876 -0.74689 -0.158108
0.199476 0.0482112 -1.00671 0.759881 -0.648028 -0.0513823
0.1764 0.0216913 -0.996455 0.73676 -0.676047 -0.0120691
0.0283483 -0.214349 -1.00213 -0.697254 0.592338 -0.403698
0.0205242 0.0988959 -1.14986 0.060048 0.487914 -0.870824
0.0286489 0.00256022 -1.11435 -0.38839 -0.718096 -0.577487
-0.0578892 0.0158909 -1.08169 -0.797154 -0.0776735 -0.598758
0.0594419 -0.108358 -1.06466 -0.261682 -0.34878 -0.899931
0.0112504 0.0975692 -1.15183 0.0435589 0.44986 -0.892036
0.0451041 0.0597313 -1.15654 0.0723659 -0.00796564 -0.997346
0.0512273 -0.384636 -1.08765 -0.0723813 -0.904839 0.419556
0.0490288 0.166528 -1.11871 -0.167519 -0.767175 0.619177
0.184313 -0.154171 -1.05331 0.0217913 -0.8277 0.560748
-0.0640874 0.126714 -1.1052 -0.645896 0.575872 -0.501189
-0.0119633 0.0964293 -1.15182 -0.298183 0.219555 -0.928915
0.148261 -0.0439496 -1.00704 0.462886 -0.0326612 -0.885816
0.182542 -0.149567 -1.04698 0.00293056 -0.832389 0.554184
0.150772 -0.252661 -0.988324 0.730569 -0.674702 -0.105103
0.155531 -0.184076 -1.08423 -0.0433483 -0.373372 0.926668
-0.00656662 0.0951071 -1.15624 -0.232302 0.255711 -0.938428
0.182397 -0.147571 -1.03876 0.0107085 -0.803524 0.595176
0.148897 -0.252642 -1.00248 0.718537 -0.683104 -0.130666
0.152577 -0.180837 -1.07777 0.283615 -0.61994 0.731598
-0.0201957 0.0614742 -1.12732 -0.211195 -0.503023 -0.838072
0.0680746 0.120888 -1.14034 0.384459 0.280023 -0.879647
-0.0626292 0.0938007 -1.11587 -0.740508 -0.0833135 -0.666863
0.122757 -0.0877803 -1.05042 0.764438 0.111991 -0.634896
0.0336243 -0.347221 -1.06061 -0.0280525 -0.483852 -0.8747
-0.0667303 0.0358213 -1.08452 -0.688242 -0.51283 -0.513155
0.139495 -0.143908 -1.04696 0.202064 0.221692 -0.953951
0.0962382 -0.250805 -1.07641 0.506348 -0.693637 -0.512327
0.185401 0.1133 -1.06702 0.452501 0.467994 -0.759095
0.0966812 0.0623934 -1.14853 0.518925 0.0114047 -0.854744
-0.0189097 -0.0775199 -1.07295 -0.0649862 -0.682068 -0.728396
-0.0213715 -0.218515 -0.913338 -0.768487 0.569434 -0.291842
0.178264 0.0862507 -1.07099 0.503491 -0.257442 -0.824755
0.173023 -0.0416702 -0.933667 -0.91881 -0.390332 -0.0585629
0.18466 0.108424 -1.07371 0.370747 0.215638 -0.903353
0.0442839 0.00287224 -1.13062 -0.224975 -0.733936 -0.640878
0.166349 0.107043 -1.07951 -0.0657833 0.339496 -0.938304
-0.0346395 0.0139013 -1.1155 -0.41523 -0.18974 -0.889709
0.125669 -0.0346256 -1.02969 0.738372 0.106024 -0.666007
0.176213 0.0208062 -1.00333 0.741672 -0.669738 -0.0370463
0.0322749 -0.214469 -1.01242 -0.711914 0.622711 -0.324669
0.117404 0.124513 -1.10457 0.826891 0.0761463 -0.557183
0.0239279 0.0947489 -1.15506 0.0453204 0.467613 -0.882771
0.0228892 -0.00153245 -1.10838 -0.0982385 0.222306 0.970015
-0.0526623 0.0112268 -1.09105 -0.795759 -0.047134 -0.603777
0.165547 0.154444 -1.03245 0.0727549 0.920879 -0.382999
0.0537732 -0.110568 -1.06034 -0.419838 -0.37193 -0.827891
0.133534 -0.189411 -1.06908 0.387801 -0.753043 0.531541
0.0175082 0.0690975 -1.15958 -0.213347 -0.22936 -0.949672
0.152918 0.107016 -1.07376 0.0619088 0.377578 -0.923906
0.199723 0.0504971 -0.988472 -0.762456 0.647039 0.000784224
-0.0166629 -0.013084 -1.10814 -0.0149753 -0.26836 -0.963202
0.00802948 -0.0860091 -1.0545 -0.0258821 -0.822644 -0.567967
0.0773963 -0.357894 -1.04084 0.540447 -0.0153773 -0.841237
0.143897 0.106273 -1.0746 0.252698 0.394497 -0.883468
0.183744 -0.0611638 -0.977525 -0.915317 -0.365104 0.169981
0.127506 0.106159 -1.08576 -0.735042 -0.267196 0.623153
0.134572 0.136503 -1.05811 0.492345 0.729104 -0.475398
0.0228609 -0.11747 -1.03603 -0.668847 -0.413109 -0.618049
-0.0126957 0.162375 -1.10677 -0.48242 0.62688 -0.611794
-0.0460519 0.0842601 -1.13007 -0.559242 -0.233712 -0.795379
-0.0226707 -0.0634405 -1.08207 -0.0479349 -0.630646 -0.774589
0.0125992 0.15806 -1.13005 -0.254169 0.570433 -0.781028
0.159716 -0.148957 -1.0457 0.0684984 0.684364 -0.725916
-0.0416926 0.0949736 -1.13387 -0.5761 -0.110967 -0.809811
-0.0462878 0.0936473 -1.13248 -0.592738 -0.157842 -0.789777
0.0323137 -0.0392004 -1.09421 0.370372 -0.495648 -0.785594
0.154557 0.143538 -1.04903 0.0888832 -0.841462 0.532956
0.135852 -0.384082 -0.988616 -0.611812 -0.786067 -0.0882326
0.0753966 0.0901873 -1.15178 0.213067 0.414224 -0.884885
0.0343741 0.0885016 -1.1564 0.0948308 0.356716 -0.929387
0.170794 0.128099 -1.06759 0.182725 0.517432 -0.835988
0.0247165 0.08793 -1.15776 0.073682 0.359269 -0.930321
0.0636332 -0.23626 -1.10435 0.0908202 -0.188934 0.977781
0.159848 -0.0104184 -0.987784 -0.987984 0.0168509 0.153634
0.180889 -0.0912882 -0.94717 -0.996041 -0.0420396 -0.0783307
0.114605 0.142014 -1.09494 0.530791 0.561197 -0.635074
0.109612 0.0925967 -1.12921 0.528141 0.506469 -0.681584
0.0403982 0.16598 -1.1208 -0.118122 -0.802668 0.584613
0.207518 -0.152986 -1.0543 -0.0651947 0.666624 -0.742537
0.173913 -0.165704 -1.0686 0.164327 -0.685257 0.70952
-0.0435587 0.139306 -1.10195 0.44662 -0.70683 0.548563
0.00536884 0.0865928 -1.16165 -0.102332 0.126456 -0.98668
0.033547 0.00134539 -1.11413 -0.33532 -0.794935 -0.505608
0.00961973 0.0192965 -1.12289 -0.410774 -0.517013 -0.750974
0.14081 0.0859199 -1.10023 0.80548 0.373376 -0.460209
0.00230639 -0.272364 -1.05128 -0.861735 0.276862 -0.425158
0.108143 0.106693 -1.11443 0.690391 0.34538 -0.635668
0.0758012 0.131245 -1.13258 0.366182 0.349552 -0.862394
-0.0887656 -0.0168313 -1.05339 -0.635745 -0.252262 -0.729516
0.150745 0.0771114 -1.07902 -0.650885 0.161586 0.741781
0.0232018 -0.0314616 -1.10161 0.160134 -0.424741 -0.89104
-0.0359116 0.0384649 -1.12402 0.115032 0.314356 0.94231
0.166286 -0.0223108 -0.974811 -0.902548 -0.365538 0.227573
0.1987 -0.169364 -1.06786 0.51576 0.113297 -0.849209
0.116228 -0.0358029 -1.0412 0.780598 0.241455 -0.576511
0.0325092 -0.245483 -1.07159 0.615556 -0.665537 0.42208
0.15833 0.0182131 -1.04137 0.220126 -0.635552 -0.740013
0.189061 0.0435735 -1.04955 0.665712 -0.54263 -0.51223
0.0802711 0.151588 -1.11919 0.343515 0.549902 -0.761318
0.0418214 -0.030782 -1.09139 0.522816 -0.446792 -0.725976
0.184617 0.0993011 -1.07196 0.4466 -0.078438 -0.891289
0.10495 0.063248 -1.14201 0.589867 0.0325694 -0.806843
0.176086 0.0986063 -1.07726 0.36323 -0.082419 -0.928047
0.157877 0.0963104 -1.08249 0.227283 0.182215 -0.95663
-0.0586753 -0.0542977 -1.06474 -0.7079 -0.358413 -0.60862
0.130397 0.0983757 -1.09379 0.631724 0.60372 -0.486258
0.0875937 -0.39407 -1.09144 0.163372 0.904869 -0.393093
0.159147 -0.0142356 -0.97894 -0.967076 -0.115614 0.22671
0.182295 -0.0885386 -0.96039 -0.998856 0.00206309 -0.0477764
0.199731 0.100143 -1.06137 0.304366 0.207045 0.929782
0.0661285 0.080744 -1.15546 0.133609 0.241733 -0.9611
-0.0544754 0.113879 -1.12394 -0.632106 0.288469 -0.719186
0.0892689 -0.0675782 -1.06865 0.338427 -0.101777 -0.935472
0.183686 -0.100848 -0.962113 -0.990349 -0.136832 -0.0220351
0.152649 0.0994277 -1.07648 0.0946856 0.292515 -0.951562
-0.01861 0.0550048 -1.12325 -0.0273578 -0.464135 -0.885342
0.141963 0.0560529 -1.09955 -0.939484 0.197421 0.279992
0.1373 0.099221 -1.08345 0.531488 0.549527 -0.644624
0.210713 0.0614673 -1.02761 0.776318 -0.615171 -0.13746
0.0322395 0.0180988 -1.13551 -0.498884 -0.591037 -0.633869
0.192656 0.09939 -1.06404 -0.282601 0.269871 0.920492
0.141554 0.0652633 -1.10609 -0.914756 0.0223431 0.403388
0.0948458 0.0229533 -1.13556 0.461699 -0.483209 -0.74387
-0.0345425 0.0851491 -1.13634 -0.510382 -0.318472 -0.798803
-0.0405698 -0.055888 -1.08836 -0.386452 -0.472531 -0.792067
0.0998337 0.017166 -1.12964 0.537337 -0.499018 -0.679889
0.148095 0.0867486 -1.08649 0.66726 0.078139 -0.740715
0.0127652 -0.0665668 -1.07494 0.218748 -0.626442 -0.748144
-0.0363615 0.0546183 -1.12679 -0.178629 -0.20623 -0.962061
0.0292072 -0.217318 -1.01346 0.682266 -0.66325 0.307591
0.187959 0.0993285 -1.06801 0.49089 -0.109534 -0.864309
0.20793 -0.138713 -1.03772 -0.11797 -0.900652 0.418222
-0.066947 0.075015 -1.1086 -0.749635 -0.0569622 -0.659396
0.132358 0.0914976 -1.10946 0.656746 0.586951 -0.473468
0.0380025 -0.393573 -1.10382 -0.123027 0.833692 -0.538351
0.0520983 -0.211081 -1.04668 0.539087 -0.715727 0.443982
0.0896568 -0.136436 -1.05814 0.175199 -0.169652 -0.969806
0.206596 0.0658626 -1.0504 -0.216134 0.705814 0.67462
0.0165763 -0.196581 -0.962369 -0.762999 0.510017 -0.397134
0.140223 0.0923394 -1.10076 0.697274 0.564999 -0.441117
0.0775797 -0.214124 -1.07389 0.364831 -0.805794 0.466471
0.095178 0.133462 -1.1178 0.570488 0.399574 -0.717554
0.0217821 -0.0258317 -1.10266 0.169778 -0.241136 -0.955525
-0.0743707 0.0548064 -1.09882 -0.796253 -0.286491 -0.532827
0.0647785 -0.159177 -1.04433 -0.509657 -0.317893 -0.799496
0.0934304 0.171653 -1.07386 -0.528977 -0.785973 0.320047
0.0209652 -0.371415 -1.05771 -0.157031 0.550751 -0.819765
0.0949459 0.0824419 -1.14734 0.491106 0.350464 -0.79749
0.0955253 -0.307336 -1.04033 0.4058 0.292457 -0.865907
0.0763527 0.0811559 -1.15437 0.20877 0.283572 -0.93595
0.19975 0.0791858 -1.05062 -0.00413197 -0.343551 -0.939125
0.0114185 0.0880897 -1.15753 -0.0350021 0.219274 -0.975035
0.0955271 -0.178091 -1.04797 -0.191957 0.00617267 -0.981384
-0.0409284 0.151471 -1.08728 -0.515601 0.680028 -0.521265
-0.105347 0.0352156 -1.03365 -0.723143 0.0908591 -0.684696
0.149297 -0.150797 -1.0485 0.000454808 0.516307 -0.856403
0.111753 0.114182 -1.10933 0.779608 0.117608 -0.615126
0.123275 -0.390241 -0.950771 0.384589 0.876248 0.290312
0.0486982 0.081505 -1.15727 0.100403 0.252593 -0.962349
-0.0409494 0.116352 -1.13186 -0.408916 0.453563 -0.791877
0.104888 -0.39359 -1.08223 0.212974 0.885661 -0.412609
-0.000543918 -0.214291 -0.956696 -0.734056 0.580895 -0.351743
-0.0524896 0.0824377 -1.12463 -0.604363 -0.18188 -0.775671
0.0776691 -0.0196251 -1.07319 0.249279 -0.211895 -0.944966
-0.0175575 -0.0590589 -1.08608 -0.073364 -0.61809 -0.782677
-0.0377415 -0.274659 -0.972245 -0.770278 0.554315 -0.315288
0.127923 0.0843807 -1.12104 0.683688 0.348891 -0.640972
0.119154 -0.392199 -0.938893 -0.372613 -0.877847 -0.300906
-0.00608734 -1.85663e-05 -1.11411 0.0770306 -0.190735 -0.978615
0.0444372 0.0792763 -1.15626 0.0751168 0.203093 -0.976274
0.0329765 -0.271084 -1.10365 -0.353361 0.115415 -0.92834
0.181451 -0.127841 -1.01786 -0.196249 -0.749413 0.63235
0.0256798 0.0779193 -1.15893 0.0231758 0.056741 -0.99812
0.0255852 -0.0960738 -1.0508 -0.420318 -0.557289 -0.716074
0.119611 0.152945 -1.08526 -0.554214 -0.7256 0.407863
0.110917 -0.244016 -1.06908 0.537124 -0.729139 -0.424091
0.00736947 0.0778347 -1.16136 -0.202558 -0.0987655 -0.974277
-0.0610001 0.0728452 -1.11433 -0.670573 -0.0732417 -0.73822
0.00242938 0.0765108 -1.15514 -0.307025 -0.227953 -0.923999
0.0999005 -0.357624 -1.00126 -0.94468 0.276114 0.177034
0.0707433 0.101115 -1.14286 0.303159 0.392095 -0.868537
0.190425 0.122276 -1.05538 -0.364743 -0.613408 0.700495
0.169717 -0.0328782 -0.946316 -0.875904 -0.478806 0.0594752
0.015517 0.0417143 -1.14187 -0.581297 -0.527407 -0.619625
0.0105316 0.0118978 -1.10576 -0.0416516 -0.344029 -0.938035
-0.0096717 0.0769925 -1.15001 -0.46838 -0.36419 -0.804976
0.147188 0.00720304 -1.03554 0.306291 -0.505155 -0.806848
-0.0528495 -0.0443945 -1.07987 -0.684636 -0.330164 -0.64982
0.185947 -0.0590611 -0.957927 -0.954598 -0.297773 -0.00864065
0.14896 0.128337 -1.06592 0.135326 0.519018 -0.843983
0.0102903 -0.0667879 -1.07524 0.211565 -0.62375 -0.752447
0.144785 0.0110804 -1.04189 0.191699 -0.489012 -0.850952
0.152883 0.123889 -1.07127 0.0160624 0.431648 -0.901899
0.00907668 -0.0624754 -1.08265 0.205985 -0.62134 -0.75598
0.187352 0.0389123 -1.0321 0.687855 -0.688312 -0.230396
0.127284 0.00772263 -1.04207 0.545469 -0.587262 -0.597986
0.212063 -0.133932 -1.02348 -0.501901 -0.856887 0.117647
0.125425 0.010585 -1.04837 0.674434 -0.609478 -0.416744
0.120789 0.00741223 -1.05457 0.697491 -0.640183 -0.321983
0.119346 0.00920734 -1.06096 0.694225 -0.668103 -0.267751
0.0768062 0.0712159 -1.15376 0.195273 0.115238 -0.973955
0.11546 0.00624394 -1.06774 0.661975 -0.694337 -0.282286
0.116707 0.00909334 -1.0763 0.614853 -0.749303 -0.245968
0.0963542 0.00717986 -1.10472 0.439063 -0.892297 -0.10502
0.107971 0.00427298 -1.08099 0.54635 -0.74029 -0.391756
0.0999145 0.00378077 -1.08338 0.424408 -0.805058 -0.414439
0.0967937 0.00685797 -1.11544 0.485956 -0.81639 -0.312017
0.0976412 0.00755206 -1.12042 0.456727 -0.78248 -0.423233
0.0909254 0.00569665 -1.12451 0.437325 -0.747367 -0.50019
-0.0268346 -0.00353181 -1.11245 -0.117568 -0.262176 -0.957832
-0.038554 -0.264503 -0.960238 -0.76716 0.563929 -0.305697
0.203425 -0.134355 -1.00318 -0.665075 -0.746393 -0.0239296
0.0985349 -0.0569154 -1.06708 0.494078 0.00425658 -0.869407
-0.0230069 0.105298 -1.14468 -0.316772 0.334713 -0.887481
0.046345 0.136898 -1.13796 0.102167 0.496014 -0.862283
0.0824379 0.00432154 -1.12733 0.299984 -0.737323 -0.605281
0.0736255 0.00411427 -1.12979 0.185114 -0.706997 -0.68256
-0.0975548 -0.0158429 -1.05167 -0.657978 -0.217885 -0.720827
0.167916 -0.115259 -1.01387 0.238323 0.635804 -0.734136
0.0658092 0.00422027 -1.13188 0.115825 -0.698715 -0.705961
0.135489 -0.00362852 -1.03103 0.245619 -0.567449 -0.785922
0.062148 0.000450885 -1.12769 0.0490611 -0.799706 -0.598384
0.122691 0.0196853 -1.10458 0.63224 -0.689461 -0.353435
0.104811 -0.195642 -1.06069 0.294873 -0.701432 0.648878
0.0576975 0.00443756 -1.13362 0.00771531 -0.701729 -0.712403
0.204042 -0.137807 -0.964504 -0.815958 -0.577944 -0.0139206
0.0522255 0.00256318 -1.12989 -0.111136 -0.754241 -0.647124
0.109826 -0.0262501 -1.04631 0.785147 0.169797 -0.595578
0.014613 -0.00189798 -1.11133 0.00518647 -0.2346 -0.972078
0.129196 0.0747262 -1.12125 0.708695 0.181911 -0.68166
0.00484283 -0.00178069 -1.11197 0.0716785 -0.186782 -0.979783
-0.0066524 -0.0038701 -1.11069 0.0182747 -0.240764 -0.970412
0.0574858 -0.220617 -1.06756 0.538783 -0.712511 0.44949
-0.0173559 -0.00364916 -1.11046 -0.0272745 -0.235389 -0.971518
0.12076 0.0413929 -1.1213 0.61934 -0.428216 -0.658065
0.140849 -0.103719 -1.02671 0.789041 0.281798 -0.545897
-0.022748 -0.00322604 -1.10697 -0.0862818 -0.246092 -0.965398
0.0529666 -0.342712 -1.06181 0.293814 -0.529011 -0.796129
0.14321 -0.101436 -1.02047 0.790534 0.279047 -0.545151
-0.0329901 -0.00393509 -1.11251 -0.393059 -0.229859 -0.89032
-0.0387966 -0.0046685 -1.10738 -0.460195 -0.212488 -0.862015
0.168414 0.0121342 -1.01817 0.73374 -0.649431 -0.199659
0.115959 -0.222292 -1.0836 0.323232 -0.237065 -0.916145
-0.010784 -0.211622 -0.92847 -0.772643 0.559284 -0.300373
0.162338 0.00834764 -1.02081 0.695293 -0.661924 -0.280043
0.183647 -0.0780514 -0.948272 -0.995903 0.0253654 -0.0867997
0.0159764 -0.0725297 -1.07242 0.177928 -0.644873 -0.74329
0.120874 0.00369067 -1.04687 0.64735 -0.606989 -0.46098
0.0921546 0.00191611 -1.08528 0.422709 -0.787025 -0.449342
0.0901142 0.00366779 -1.1169 0.433052 -0.863548 -0.258364
-0.0936708 -0.00874993 -1.06352 -0.608292 -0.187133 -0.771338
0.0406739 0.00137927 -1.12299 -0.278581 -0.781018 -0.558931
0.0703604 -0.0685697 -1.07509 0.30686 -0.108622 -0.945536
0.164221 0.00776589 -0.995872 -0.819791 0.57132 0.0391925
0.103508 0.00550185 -1.08736 0.43552 -0.831501 -0.34486
-0.0177682 -0.0425509 -1.09976 -0.0388045 -0.448385 -0.892998
0.0867204 0.00231245 -1.10671 0.450959 -0.884715 -0.117967
0.179858 0.122622 -1.05871 0.337692 0.489629 -0.803883
0.0496464 -0.000981274 -1.12134 -0.18748 -0.807464 -0.559333
0.156568 -0.0320291 -0.998563 0.793559 0.202672 -0.573749
0.0323194 -0.00213854 -1.10449 0.136939 0.605353 0.784089
-0.0528829 -0.100668 -1.02435 0.136285 0.928393 0.345707
-0.0549475 -0.0079561 -1.09141 -0.741126 -0.0678339 -0.66793
0.0894391 -0.107354 -1.06205 0.318666 -0.0932051 -0.943273
0.148302 0.0770465 -1.08603 0.759887 -0.0804325 -0.64506
0.0854492 0.00128174 -1.07972 0.387831 -0.68915 -0.612094
0.0702256 -0.0782294 -1.07314 0.251634 -0.203913 -0.946097
0.132644 -0.164009 -1.05296 -0.1383 0.217115 -0.966299
0.132854 0.072948 -1.11719 0.774663 0.168432 -0.609531
0.00127002 -0.00564626 -1.10876 0.0776795 -0.162724 -0.983609
0.0801727 -0.000343767 -1.12104 0.312232 -0.8564 -0.411206
-0.0206538 -0.321903 -1.02869 -0.872081 0.274719 -0.404973
0.0886742 -0.227669 -1.095 0.204375 0.126743 -0.970653
0.0810779 -0.0662749 -1.07423 0.31609 -0.110056 -0.942324
0.0460311 -0.00313753 -1.11139 -0.178248 -0.839678 -0.513
0.0226922 -0.00353899 -1.10086 0.220558 -0.296242 -0.929298
0.201143 0.0507634 -1.01801 0.746771 -0.661743 -0.0665532
0.0951484 -0.022808 -1.05484 0.793495 0.0357601 -0.607526
0.0785454 0.112052 -1.13422 0.452975 0.255966 -0.853988
0.160523 0.00475964 -0.987638 -0.887371 0.450664 0.0973377
0.0794806 -0.00180299 -1.11197 0.374892 -0.90707 -0.191521
0.0921862 0.143645 -1.11794 0.518432 0.505862 -0.689444
0.0797883 -0.067891 -1.07139 0.308555 -0.123761 -0.943121
0.140163 -0.002518 -1.03298 0.250875 -0.594898 -0.763648
0.0578709 -0.00348765 -1.12043 0.0364972 -0.82732 -0.560544
0.040333 -0.00427049 -1.10091 -0.0830016 -0.667295 -0.740155
0.0284938 -0.208521 -0.993006 -0.72387 0.519824 -0.453647
0.187164 -0.0571887 -0.964889 -0.946713 -0.32208 -6.71894e-05
0.0268754 -0.236885 -1.04881 -0.655865 0.645879 -0.390744
0.201912 -0.129975 -1.01803 -0.375697 -0.896344 0.235413
0.0775678 -0.00229691 -1.0989 0.42906 -0.885747 -0.177087
-0.111805 -0.0136352 -1.03717 -0.723779 -0.113153 -0.680691
0.177694 0.0249805 -0.97913 -0.775565 0.631042 -0.0168617
0.158728 0.00135604 -0.986151 -0.906691 0.405074 0.117589
-0.0653956 0.054539 -1.11014 -0.71141 -0.243985 -0.659066
0.142678 -0.0225918 -1.01581 0.56733 -0.312489 -0.761898
0.151811 -0.00226014 -1.02214 0.60708 -0.594933 -0.526791
0.153702 -0.000316838 -1.03002 0.566861 -0.632907 -0.52735
0.0114766 -0.0524891 -1.09218 0.215503 -0.578054 -0.787028
0.143734 -0.00442196 -1.02758 0.339435 -0.649784 -0.680122
-0.0535915 -0.0154289 -1.09206 -0.67289 -0.182365 -0.716912
0.125602 0.104388 -1.09354 0.724819 0.422608 -0.544095
-0.0637621 -0.0851725 -1.04107 -0.423708 -0.761633 -0.490293
-0.0258437 0.138591 -1.11652 0.425261 -0.583972 0.691469
-0.106779 -0.0048127 -1.04387 -0.738509 -0.0931704 -0.667776
0.111158 -0.00646954 -1.04843 0.72243 -0.507874 -0.469211
-0.0379974 -0.260745 -0.955019 -0.775869 0.561402 -0.287844
0.110409 -0.00330765 -1.05594 0.702775 -0.603491 -0.376703
0.188041 -0.120284 -1.01119 -0.456251 -0.782834 0.42309
0.0587787 -0.16571 -1.04068 -0.542194 -0.314545 -0.779158
-0.0406977 0.0263858 -1.10886 -0.575321 -0.279702 -0.768617
0.198772 -0.158735 -1.06071 0.162154 0.650575 -0.741929
0.104743 -0.00357161 -1.0714 0.576217 -0.691283 -0.436006
0.104115 -0.00349286 -1.0772 0.5426 -0.708224 -0.451668
0.195585 0.13053 -1.05005 -0.454028 -0.684227 0.570695
0.0990802 -0.0032721 -1.07979 0.444213 -0.694626 -0.565835
0.0961691 -0.372649 -1.02356 -0.700301 -0.665555 0.258098
0.080715 -0.00656394 -1.0847 0.332297 -0.807636 -0.487138
0.069957 -0.00576027 -1.09154 0.432558 -0.870172 -0.235995
-0.0180455 0.093624 -1.15118 -0.436701 0.0487184 -0.898286
0.0743819 -0.00404271 -1.10314 0.409886 -0.900905 -0.142699
0.0207039 0.038229 -1.14209 -0.572352 -0.529831 -0.625854
0.118336 0.102697 -1.10625 0.722516 0.475464 -0.5019
0.0738895 -0.00488056 -1.11052 0.330079 -0.915328 -0.230701
0.0612657 -0.00554573 -1.11764 0.0891405 -0.860285 -0.501961
0.0561518 -0.0114584 -1.10577 -0.281657 0.892035 0.353473
0.0473891 -0.012025 -1.1086 -0.0222885 -0.726948 -0.686331
0.0146525 -0.0111965 -1.10857 0.137953 -0.261676 -0.955246
0.208668 0.0739852 -1.06441 -0.579047 -0.405703 -0.707184
0.00308192 -0.0137413 -1.10802 0.049911 -0.249736 -0.967027
0.121689 -0.0878014 -1.06079 0.614274 0.0106035 -0.789022
-0.00528694 0.12579 -1.13815 -0.242771 0.448732 -0.860059
-0.0422065 -0.0152669 -1.09992 -0.503475 -0.220933 -0.835286
-0.0278715 -0.333631 -1.01853 -0.903301 0.0827417 -0.420952
0.0793061 -0.058082 -1.07302 0.311396 -0.0936347 -0.945656
-0.0607996 -0.0163684 -1.08298 -0.730883 -0.159983 -0.663487
0.144694 -0.00698719 -1.01708 0.648225 -0.52138 -0.554948
-0.0676207 -0.0148909 -1.07407 -0.638501 -0.0893567 -0.764416
-0.105119 -0.0183793 -1.03523 -0.716829 -0.119449 -0.686941
0.15443 -5.99012e-05 -1.03874 0.433239 -0.649098 -0.625281
0.0976102 -0.00735832 -1.07382 0.503437 -0.608652 -0.613265
-0.00782591 -0.23228 -0.972163 -0.717953 0.596091 -0.35947
0.064252 -0.00910573 -1.10524 0.352077 -0.906267 -0.233928
0.0521537 -0.0090929 -1.10231 0.102005 -0.890081 -0.444241
-0.101344 -0.0173192 -1.0453 -0.680704 -0.164242 -0.71391
0.1041 -0.0538602 -1.06646 0.636854 0.0926939 -0.765392
0.158495 -0.0128449 -0.969448 -0.955889 -0.189973 0.224022
0.167155 -0.111201 -1.00902 0.319817 0.661075 -0.678747
0.00039842 0.123919 -1.14218 -0.127597 0.391144 -0.911441
-0.0355253 -0.0165305 -1.10324 -0.375298 -0.254908 -0.891164
0.0803269 -0.0571657 -1.07587 0.317758 -0.0780019 -0.944958
0.15485 -0.00299668 -0.975349 -0.952334 0.175878 0.249252
0.105865 0.121808 -1.11494 0.717643 0.123121 -0.685441
0.126385 -0.00496668 -1.0239 0.426001 -0.486342 -0.762886
0.200408 -0.180446 -1.06272 0.574586 -0.325353 -0.750997
0.125492 -0.00506322 -1.03896 0.512314 -0.522866 -0.681282
0.00180981 -0.231535 -0.990494 -0.685476 0.616734 -0.386991
0.0613351 -0.0109002 -1.08589 0.514171 -0.735174 -0.441756
0.158241 -0.1118 -1.01241 0.418644 0.523882 -0.741812
-0.0834913 0.0122176 -1.06589 -0.462124 0.0729846 -0.883807
0.040014 -0.0123356 -1.11108 -0.185892 -0.45107 -0.872915
-0.0243692 -0.100028 -1.01903 -0.00880384 0.963591 0.267235
0.0110869 -0.0144946 -1.1068 0.0755989 -0.255721 -0.96379
0.111675 -0.00914083 -1.04149 0.737263 -0.430503 -0.520683
0.0996266 -0.00992046 -1.06662 0.684523 -0.528801 -0.501794
-0.0638716 -0.0207924 -1.07708 -0.709218 -0.19963 -0.676135
0.15727 -0.141195 -1.035 0.302888 0.668914 -0.678832
0.154777 -0.0118692 -0.998496 -0.950534 0.182068 0.251669
0.156728 -0.00782146 -1.01166 -0.842136 0.455077 0.289329
0.151369 -0.0126629 -1.00522 -0.911596 0.182818 0.3682
0.0136854 -0.0407538 -1.1002 0.118388 -0.484823 -0.866563
0.147022 -0.00840887 -1.03283 0.322435 -0.61462 -0.719916
0.0101747 -0.228768 -0.997887 -0.668063 0.641549 -0.376971
0.182786 -0.07781 -0.952777 -0.996324 0.011458 -0.084892
-0.0384968 -0.0835552 -1.0629 -0.206343 -0.721043 -0.661452
0.125697 -0.0133345 -1.02815 0.451977 -0.346798 -0.821857
0.12341 -0.0147237 -1.02564 0.505513 -0.270877 -0.819196
0.0112632 -0.253361 -1.04922 -0.719945 0.592453 -0.361495
-0.0579091 0.0461049 -1.1142 -0.59407 -0.475244 -0.649017
0.115402 -0.0135627 -1.03433 0.69125 -0.185644 -0.698363
0.0997118 -0.0114821 -1.05869 0.753735 -0.476707 -0.452364
0.0952176 -0.0134454 -1.07109 0.595655 -0.516123 -0.615478
0.07784 -0.0158611 -1.07743 0.23837 -0.432055 -0.869775
0.0694694 -0.0161628 -1.07953 0.329808 -0.472764 -0.817142
0.0995069 -0.326702 -1.04686 0.634934 -0.167726 -0.75414
0.0595654 -0.0140883 -1.09164 0.506702 -0.755519 -0.415265
0.122045 -0.290071 -0.963372 -0.919282 0.381017 0.0987255
0.0805392 -0.216161 -1.07948 0.339733 -0.80175 0.491711
0.139914 0.126056 -1.06866 0.433605 0.480182 -0.762503
0.0245505 -0.0205385 -1.10523 0.15866 -0.138583 -0.977559
0.0308732 -0.00469105 -1.09625 0.131077 -0.393786 -0.909808
0.158322 -0.0347224 -1.00848 0.722921 0.186338 -0.665329
0.0146327 -0.0200202 -1.10706 0.0569286 -0.228622 -0.971849
-0.0138745 -0.0216292 -1.10651 -0.00407629 -0.221173 -0.975226
0.181254 -0.066107 -0.921581 -0.9693 -0.145276 -0.198374
-0.0186896 -0.0247109 -1.10482 -0.049413 -0.246886 -0.967784
-0.0352253 -0.0220186 -1.10283 -0.382591 -0.301013 -0.873507
-0.00711371 -0.352186 -1.04756 -0.519962 -0.274322 -0.808941
0.0999173 -0.127479 -1.05642 0.273432 -0.089482 -0.95772
0.105078 -0.296756 -1.03716 0.426137 0.0415816 -0.903702
-0.0406758 -0.0250563 -1.09958 -0.488717 -0.280854 -0.826
0.210449 -0.190351 -1.03387 -0.596739 0.712242 0.369613
0.0705011 -0.0387315 -1.0785 0.282001 0.104412 -0.953716
0.0995809 -0.123817 -1.05808 0.279301 -0.0623108 -0.95818
-0.0514144 -0.0260261 -1.09125 -0.626379 -0.277513 -0.728447
-0.0369359 0.155572 -1.08698 -0.52364 0.679369 -0.514061
-0.0410835 -0.0871518 -1.05933 -0.236591 -0.734932 -0.635531
0.15922 0.104654 -1.07917 -0.0686122 0.329275 -0.941738
0.0117865 -0.0460107 -1.0954 0.190003 -0.529965 -0.82646
0.0505496 -0.0197771 -1.08852 0.693383 -0.480759 -0.53674
0.0792007 -0.0376002 -1.07586 0.272289 0.0783746 -0.959018
0.0478494 -0.0180271 -1.10729 -0.185591 0.654844 0.732622
0.0439204 -0.0209112 -1.10303 0.280684 -0.48364 -0.829041
0.0709472 -0.228569 -1.08762 0.319896 -0.728922 0.60526
-0.0224806 -0.0335809 -1.10866 -0.112889 -0.353748 -0.928503
0.108487 -0.0168105 -1.03984 0.778779 -0.101389 -0.619051
0.0267372 0.0322302 -1.1445 -0.502447 -0.53276 -0.680966
0.123025 0.0988914 -1.09922 0.626596 0.613192 -0.481013
0.0657842 -0.0209727 -1.07519 0.351459 -0.264886 -0.897949
-0.0423678 -0.0455825 -1.08922 -0.473713 -0.358386 -0.80446
0.0492543 -0.022265 -1.08027 0.640226 -0.298571 -0.707789
-0.0632121 -0.028119 -1.07374 -0.732309 -0.280533 -0.620504
0.0525594 0.0343145 -1.15589 0.0177996 -0.459037 -0.888239
0.134584 -0.0163775 -1.02153 0.401774 -0.397738 -0.824853
0.0464643 0.0863659 -1.15854 0.0997176 0.295484 -0.950129
-0.00373139 -0.0307526 -1.103 0.0360675 -0.303939 -0.952008
0.0955004 -0.0196471 -1.054 0.821719 -0.0604951 -0.566673
-0.0374309 -0.386363 -1.03521 0.482528 -0.848653 0.216689
0.156028 -0.0220941 -0.989476 -0.947986 -0.192161 0.253765
0.163998 0.145586 -1.04822 0.0190139 -0.865283 0.500924
0.0626607 -0.0123557 -1.07794 0.411394 -0.539265 -0.734812
0.182162 -0.110665 -0.990062 -0.779066 -0.521645 0.347767
0.0983607 -0.335522 -1.04557 0.626547 -0.414403 -0.660083
0.140082 -0.185863 -1.07033 0.382558 -0.738171 0.555656
-0.0405011 -0.385095 -1.02824 0.483045 -0.851812 0.202692
0.153057 -0.0214317 -0.99821 -0.926107 -0.0467973 0.374347
0.134967 -0.402117 -1.04992 0.676321 0.725659 -0.126527
0.112202 -0.0562164 -1.05473 0.772737 0.163121 -0.613408
0.0697822 -0.00875339 -1.08232 0.420667 -0.7489 -0.512043
0.0259565 0.0388478 -1.14722 -0.501869 -0.510851 -0.697967
0.161123 0.148568 -1.04199 0.0497313 -0.889662 0.453904
0.119701 0.105256 -1.09871 0.75966 0.370282 -0.534611
0.179173 -0.10784 -0.986279 0.729052 0.498809 -0.468693
-0.0391538 -0.0706597 -1.08389 -0.234881 -0.61066 -0.756258
0.144126 -0.18674 -1.08126 0.143896 -0.674499 0.724117
0.149987 -0.0212391 -1.00302 0.875841 -0.0408836 -0.480865
-0.0591337 0.104698 -1.12082 -0.728662 0.0619229 -0.682068
0.0602021 -0.136744 -1.05291 -0.477216 -0.377656 -0.793499
0.0394944 0.109147 -1.14435 -0.0257981 0.253063 -0.967106
0.149647 -0.0232131 -1.01153 0.684514 -0.131118 -0.717112
0.181274 0.0267406 -1.01377 0.732369 -0.669718 -0.122937
0.0793209 0.165783 -1.10392 -0.45091 -0.655787 0.605494
0.125754 -0.0230274 -1.02513 0.582726 -0.100913 -0.806379
0.182849 0.0306448 -1.02242 0.725457 -0.664589 -0.178978
0.12362 -0.0251721 -1.02939 0.682737 -0.0106162 -0.730587
0.00136048 -0.365577 -1.04692 -0.510032 0.437411 -0.740634
0.119883 -0.277422 -1.02559 0.762959 -0.474724 -0.438783
0.212166 -0.139714 -1.01452 0.593147 0.804549 -0.0296294
0.0445595 -0.0243487 -1.09145 0.606015 -0.492525 -0.624632
0.0786505 -0.229499 -1.09718 0.0426377 0.265711 -0.96311
-0.0320694 -0.0336138 -1.09859 -0.308074 -0.289258 -0.906322
0.127934 -0.0338093 -1.02405 0.683769 -0.0164312 -0.729513
-0.0393292 -0.0341424 -1.09613 -0.47564 -0.318659 -0.819892
-0.0445945 -0.0367827 -1.09195 -0.56015 -0.305122 -0.770151
0.0882047 -0.186698 -1.04893 -0.369298 0.170144 -0.913603
0.099902 -0.135811 -1.05565 0.233613 -0.0880789 -0.968332
0.11882 -0.314081 -0.980948 -0.990371 0.13645 -0.0233704
0.162587 -0.0220105 -0.957593 -0.90398 -0.405617 0.135258
0.0429215 -0.0909532 -1.06267 -0.459345 -0.447431 -0.767338
0.162581 -0.0218534 -0.967612 -0.910411 -0.369003 0.187054
0.0887096 -0.0293969 -1.07275 0.526623 0.0214069 -0.849829
0.145524 -0.257399 -0.996963 0.72439 -0.676272 -0.133852
0.102984 0.0829081 -1.14089 0.565437 0.347591 -0.747972
0.223039 -0.176622 -1.04328 -0.761565 0.475033 0.440866
0.0813219 -0.156194 -1.05752 -0.203601 -0.254993 -0.945265
-0.0265768 -0.075001 -1.07241 -0.0866902 -0.679632 -0.728413
0.0762941 -0.0267565 -1.07023 0.305151 -0.031014 -0.951799
0.198076 0.0513948 -1.03938 0.675026 -0.649719 -0.349579
0.067189 -0.0284747 -1.07365 0.311864 -0.0128874 -0.950039
0.0497777 -0.0288097 -1.08217 0.636586 -0.214537 -0.740765
0.0790654 -0.0506229 -1.07375 0.31318 -0.059967 -0.947799
0.184102 0.0350998 -1.02437 0.724522 -0.666866 -0.174232
0.081389 0.155766 -1.11278 0.434519 0.621052 -0.652294
0.0408683 -0.0275672 -1.10091 0.426706 -0.540425 -0.725164
0.0286255 -0.0295523 -1.10406 0.254549 -0.426814 -0.867776
0.136226 -0.184413 -1.06147 0.333748 -0.620802 0.709378
0.0136282 -0.0318579 -1.10255 0.0666067 -0.373886 -0.92508
-0.0234797 0.112541 -1.14257 -0.285269 0.481502 -0.82872
0.00319798 -0.0320853 -1.10195 0.0423711 -0.333558 -0.941777
0.19688 -0.139248 -1.032 0.0493916 -0.862495 0.50365
-0.017981 -0.0341532 -1.10174 -0.0488666 -0.356585 -0.932984
0.164724 -0.0225482 -0.967427 -0.900882 -0.385168 0.200141
0.138207 -0.123347 -1.04183 0.641346 0.23959 -0.728884
-0.0607267 0.0532336 -1.11367 -0.660178 -0.234719 -0.713493
0.170908 -0.0809879 -0.994078 0.36152 -0.239094 -0.901187
0.146709 -0.0212834 -1.02142 0.54151 -0.430205 -0.722282
0.102026 -0.028152 -1.05714 0.798885 0.132419 -0.586726
-0.065315 -0.0374091 -1.06659 -0.74361 -0.316618 -0.588895
0.0316766 0.0969778 -1.15193 0.0863238 0.457433 -0.885044
0.000731927 -0.208128 -0.94595 -0.761524 0.548019 -0.346057
0.0481567 -0.0311887 -1.08624 0.553922 -0.329992 -0.764379
0.129713 0.0230035 -1.08297 0.741058 -0.656665 -0.140086
0.0181632 -0.0306438 -1.10717 0.0851872 -0.362457 -0.928099
0.0381574 -0.202679 -1.00088 -0.850712 0.312374 -0.422742
-0.027039 0.117115 -1.1374 -0.278822 0.522603 -0.805695
-0.000844004 -0.0350317 -1.10023 0.058701 -0.357743 -0.931973
0.206238 -0.135389 -1.02509 -0.343321 -0.909277 0.235257
0.125236 -0.07228 -1.0361 0.830704 0.219031 -0.511816
0.132821 0.0503667 -1.11734 0.772083 -0.276918 -0.572018
0.00343516 -0.0224702 -1.10542 -0.0016861 -0.290386 -0.956908
0.0520312 0.119266 -1.14578 0.0630442 0.225835 -0.972123
0.202084 -0.141738 -1.03847 -0.00443107 -0.861129 0.508367
0.0170813 0.117187 -1.14094 -0.0329883 0.239891 -0.970239
0.0940899 -0.0296396 -1.0707 0.647802 0.0425398 -0.76062
0.134408 -0.246677 -1.04253 0.490704 -0.632782 -0.598996
0.168108 -0.0299769 -0.956536 -0.875578 -0.478047 0.0695273
-0.0207472 -0.0154778 -1.10644 -0.0964223 -0.279889 -0.955178
0.227062 -0.152794 -1.03651 -0.799683 -0.581246 0.150529
0.0135137 -0.266694 -1.07386 -0.759411 0.475339 -0.444239
0.166029 -0.0299389 -0.971255 -0.872119 -0.428225 0.236709
0.0336092 -0.331152 -1.07456 -0.159939 -0.281315 -0.946193
0.068195 -0.21798 -1.07261 0.398547 -0.789449 0.46683
0.205393 -0.136311 -0.983199 -0.757162 -0.65251 -0.0305994
0.135986 -0.1246 -1.04858 0.560897 0.155241 -0.8132
0.162232 -0.0315366 -0.975774 -0.896976 -0.354957 0.263514
-0.00468682 0.0636347 -1.13926 -0.508348 -0.565993 -0.649025
0.0547171 -0.139688 -1.04605 -0.529482 -0.353805 -0.77102
0.153793 -0.0292027 -1.00381 0.814758 0.0446621 -0.578079
0.163133 0.0107449 -1.02747 0.665644 -0.642098 -0.3803
0.151921 -0.122379 -1.02357 0.515333 0.496541 -0.698483
0.152167 -0.0325178 -1.01159 0.607122 -0.0168002 -0.794431
0.149523 -0.119697 -1.019 0.53903 0.494538 -0.68182
0.133357 -0.0332489 -1.01758 0.569896 -0.112484 -0.813982
0.015573 -0.0791169 -1.06841 0.0907098 -0.749428 -0.655843
0.111158 -0.0351934 -1.04796 0.751212 0.24304 -0.613687
0.103531 -0.0360928 -1.05785 0.717485 0.268847 -0.642602
0.0254721 -0.199254 -0.983242 -0.759319 0.438794 -0.480515
0.0991183 -0.0358429 -1.06473 0.684706 0.244467 -0.686596
0.0668978 -0.0372405 -1.07753 0.343723 0.0698737 -0.936468
0.0614272 -0.040485 -1.08134 0.333905 0.088591 -0.938434
0.045669 -0.329805 -1.07493 0.173454 -0.283976 -0.943012
0.170827 -0.0533102 -1.00184 -0.610144 -0.355419 0.708098
0.0895651 -0.385794 -0.921595 -0.406652 -0.852231 -0.329144
0.0579894 -0.0373707 -1.08047 0.416906 0.0639329 -0.906698
0.0508137 -0.0392411 -1.08283 0.278267 -0.0753285 -0.957545
0.0310954 -0.044039 -1.08805 0.312877 -0.53532 -0.784564
0.150069 -0.0121004 -1.0122 0.7999 -0.407815 -0.440281
0.0493953 -0.0399246 -1.08506 0.40549 -0.144537 -0.9026
0.0889698 -0.00788923 -1.07911 0.372854 -0.655364 -0.65687
0.0233738 -0.0404625 -1.0982 0.21367 -0.529945 -0.820672
0.0409812 -0.169317 -1.02112 -0.721565 -0.336541 -0.60505
0.00169857 -0.0431567 -1.09769 0.0617415 -0.448841 -0.891476
-0.00874313 -0.0430491 -1.09774 0.022818 -0.438777 -0.898306
0.106307 -0.382051 -1.05121 -0.272912 -0.915366 0.296012
0.0802718 -0.00088039 -1.08084 -0.326151 0.754203 0.569915
-0.0191628 -0.0395875 -1.10759 -0.0555625 -0.386684 -0.920537
0.0975182 -0.120509 -1.05748 0.315796 -0.0393897 -0.948009
-0.0259844 -0.0416678 -1.10074 -0.183266 -0.432247 -0.882936
-0.0309825 -0.0455224 -1.09526 -0.266441 -0.46772 -0.842762
0.0664097 -0.273435 -1.07941 0.55173 -0.645443 -0.528202
-0.0370109 -0.0457363 -1.09293 -0.398347 -0.405684 -0.822642
0.138082 0.0285761 -1.08725 -0.842658 0.503504 0.190818
0.0117932 -0.101844 -1.03015 -0.558748 -0.589739 -0.583103
0.169071 -0.0349936 -0.933892 -0.872215 -0.488592 -0.0227656
0.0304279 -0.36097 -1.05559 -0.105455 0.166458 -0.980393
0.149923 0.00290273 -1.02757 0.577515 -0.608573 -0.544165
0.161211 -0.0348831 -0.986606 -0.87899 -0.376425 0.292712
0.0463286 0.0397309 -1.15653 -0.0717649 -0.303352 -0.950172
-0.0613038 -0.0495672 -1.06375 -0.737311 -0.315019 -0.597608
0.00934724 -0.0583055 -1.08833 0.227974 -0.608148 -0.760384
0.172268 -0.0378978 -0.94444 -0.863948 -0.501444 0.0463351
0.139205 0.0347649 -1.0804 -0.880028 0.409172 0.2411
0.102961 -0.0248482 -1.05204 0.790956 0.10764 -0.602331
0.0241954 -0.0895967 -1.05186 -0.279204 -0.662101 -0.695462
0.00949565 -0.240866 -1.01992 -0.69863 0.631673 -0.336014
0.161249 -0.039318 -0.999964 0.764353 0.331676 -0.552952
0.164291 0.0222775 -1.04584 0.335118 -0.704087 -0.626065
0.160379 -0.0430897 -1.00612 0.604497 0.235878 -0.760884
-0.0517005 -0.392408 -1.03088 0.591524 -0.773036 0.229163
0.0240684 0.165059 -1.11924 -0.0729028 0.837186 -0.542037
0.152448 -0.0425494 -1.00876 0.444358 -0.0184065 -0.89566
0.128538 -0.103874 -1.04642 0.690209 0.112288 -0.714844
0.0322076 -0.138156 -1.02935 -0.687915 -0.41602 -0.594727
0.13386 -0.0439721 -1.0175 0.699378 -0.0203819 -0.714461
-0.0510891 -0.0507333 -1.08037 -0.665136 -0.315568 -0.676765
0.128507 -0.0432033 -1.02475 0.789815 0.0917481 -0.606444
0.120562 -0.0439599 -1.03543 0.812069 0.158894 -0.561513
-0.0802579 0.10322 -1.09125 -0.82088 0.0520799 -0.568721
0.0018312 -0.0525762 -1.09408 0.0912433 -0.539553 -0.836993
0.0977818 -0.374111 -1.0338 -0.479336 -0.823326 0.303926
-0.019692 -0.0527651 -1.09192 -0.0876079 -0.573058 -0.814819
-0.0245545 -0.224992 -0.91708 -0.769612 0.573403 -0.280904
-0.0662349 0.0824884 -1.10809 -0.761542 -0.0653636 -0.644811
-0.0298931 -0.0529199 -1.09308 -0.222045 -0.539524 -0.812164
-0.0369346 -0.05415 -1.0938 -0.305948 -0.471627 -0.827021
-0.0187521 -0.243034 -0.967714 -0.731334 0.594136 -0.334892
0.182512 -0.0927579 -0.982488 0.859869 0.187546 -0.474818
0.0888636 -0.046934 -1.0722 0.387405 0.00128833 -0.921909
0.0916692 -0.0481085 -1.06952 0.514196 0.0115177 -0.857595
0.0704381 -0.0470869 -1.07859 0.292112 0.00895319 -0.956342
0.092668 -0.187124 -1.0526 -0.296843 0.275805 -0.91423
0.0982379 -0.13521 -1.05839 0.266039 -0.11316 -0.957297
0.153183 -0.00368762 -1.014 0.763459 -0.533504 -0.364011
0.0530524 -0.0485541 -1.08478 0.233304 -0.135059 -0.962979
0.0137918 -0.119718 -1.01729 -0.67445 -0.491273 -0.551151
0.0488369 -0.0504781 -1.08267 0.116307 -0.213357 -0.970026
0.0394999 -0.0505285 -1.08305 0.108066 -0.417304 -0.902319
0.0866907 -0.279491 -1.05007 0.52474 -0.512563 -0.679652
0.0201393 -0.0517957 -1.08666 0.241322 -0.607344 -0.7569
0.162275 0.117553 -1.07042 -0.0596919 0.436388 -0.897776
0.0253816 0.118621 -1.13982 -0.0898184 0.229394 -0.969181
0.173294 -0.0438995 -0.979635 -0.787067 -0.538523 0.300863
0.177811 -0.0440144 -0.968284 -0.837601 -0.500294 0.219386
0.100694 -0.376906 -1.04404 -0.312836 -0.917223 0.24665
-0.0259119 -0.0571521 -1.08482 -0.126014 -0.59148 -0.796412
0.098354 0.168044 -1.07329 -0.542258 -0.77896 0.314925
-0.0138617 -0.221521 -0.939316 -0.754997 0.582479 -0.301159
0.165028 -0.0450745 -0.993303 0.767236 0.46522 -0.441497
0.166345 -0.104964 -1.00423 0.457503 0.640367 -0.616946
0.13149 0.0949879 -1.10204 0.659079 0.618631 -0.42768
-0.0611069 -0.0606501 -1.05532 -0.698905 -0.39222 -0.598077
-0.0354751 0.0449949 -1.12549 -0.0699333 -0.399065 -0.914252
0.210976 -0.148652 -1.04714 -0.123256 -0.811902 0.570633
-0.0606329 0.0638577 -1.11489 -0.660606 -0.0860869 -0.745781
0.144072 -0.0114514 -1.02419 0.407843 -0.609476 -0.679855
0.136041 -0.114041 -1.04112 0.711938 0.232727 -0.662558
0.0349963 0.140399 -1.13707 0.0937031 0.333338 -0.938139
0.151584 -0.0499323 -1.00764 0.431488 -0.0349076 -0.901443
0.168222 -0.116993 -1.01238 0.275766 0.643024 -0.714474
-0.0236483 0.127039 -1.127 0.336222 -0.609175 0.718235
0.142012 -0.051698 -1.01182 0.508376 -0.0238727 -0.860804
0.0873543 -0.345522 -1.04349 0.518387 -0.512761 -0.684362
0.1738 -0.132337 -1.02467 0.103969 0.697178 -0.709319
-0.0492815 -0.0456751 -1.0829 -0.667974 -0.370481 -0.64541
0.134534 -0.0536498 -1.01729 0.72426 0.0847304 -0.684301
0.12343 -0.0545228 -1.03643 0.83588 0.166706 -0.522986
0.120092 -0.0544058 -1.04185 0.818367 0.186433 -0.543616
0.0306963 0.0399772 -1.15314 -0.375549 -0.434433 -0.818676
0.183463 -0.114246 -1.00972 -0.446914 -0.7505 0.486845
0.0468871 -0.26062 -1.09566 0.132733 0.151209 -0.97955
0.145422 -0.186585 -1.08512 -0.169704 0.614411 -0.770519
0.0190182 -0.0561497 -1.08332 0.258891 -0.615428 -0.744462
0.116825 -0.335083 -0.997867 -0.887988 0.424807 0.176117
0.152071 -0.241073 -1.03491 0.594136 -0.690264 -0.412962
0.164475 -0.133385 -1.0277 0.247622 0.671037 -0.698851
0.0663701 0.127465 -1.14083 0.321054 0.387506 -0.864155
-0.00335209 -0.0576917 -1.09081 0.0461783 -0.607245 -0.793172
0.156781 -0.0113159 -0.962103 -0.955206 -0.218563 0.19953
0.106579 -0.0560167 -1.06074 0.659445 0.104832 -0.744408
-0.0721758 0.0683123 -1.10143 -0.78607 -0.109461 -0.608369
-0.032651 -0.0626593 -1.08247 -0.217184 -0.585048 -0.781377
0.0995216 -0.0762679 -1.06536 0.375891 -0.133835 -0.916948
0.0385522 -0.234989 -1.06212 0.60777 -0.655231 0.448652
0.0262191 -0.0929022 -1.04846 -0.420318 -0.557289 -0.716074
-0.0391527 -0.0639007 -1.08745 -0.271916 -0.555836 -0.785562
0.127997 -0.0940945 -1.04579 0.790585 0.184624 -0.583858
0.152191 -0.05381 -1.00511 0.417994 -0.0801378 -0.904908
-0.0184385 0.126093 -1.13032 -0.293029 0.579741 -0.760285
0.14258 -0.0547641 -1.00732 0.503994 -0.0379372 -0.862873
0.0845 -0.258852 -1.07899 0.549362 -0.674587 -0.493086
0.0800529 -0.0775192 -1.07067 0.338439 -0.15206 -0.928621
-0.0182228 -0.313878 -1.0208 -0.87448 0.29928 -0.381727
0.0889797 -0.0563922 -1.07185 0.338847 -0.0687187 -0.938329
0.173265 -0.22294 -1.03254 0.61665 -0.727804 -0.300075
0.189302 -0.207267 -1.03473 -0.582944 0.730444 0.355849
0.0711734 -0.0592876 -1.07821 0.316005 -0.116461 -0.941583
0.173659 -0.127985 -1.02068 0.130814 0.67598 -0.725216
0.0345254 -0.0338544 -1.09698 0.431392 -0.468953 -0.770704
0.0695747 -0.0576252 -1.07631 0.309258 -0.0934578 -0.946375
0.11686 0.0952071 -1.11899 0.577511 0.603903 -0.549348
-0.0550367 0.0243879 -1.08991 -0.769207 -0.321017 -0.552511
0.152983 -0.171982 -1.05911 -0.363489 0.525934 -0.76894
0.0605882 -0.057398 -1.0815 0.175928 -0.134003 -0.97524
0.0523727 -0.0570165 -1.08395 0.0977306 -0.206281 -0.9736
0.0432464 0.0898597 -1.15428 0.0974374 0.33165 -0.938357
0.0401494 -0.0591102 -1.08017 0.0307887 -0.40273 -0.914801
0.0368553 -0.0622131 -1.0748 -0.0680131 -0.47803 -0.875706
0.0281559 -0.0622259 -1.07753 0.109096 -0.532779 -0.839193
0.0190367 -0.0617065 -1.08016 0.225453 -0.571037 -0.789359
-0.055213 -0.398232 -1.03336 -0.621216 0.735556 -0.270273
-0.000591082 -0.0642199 -1.08534 0.107204 -0.634384 -0.765548
-0.052166 -0.396978 -1.03971 -0.60971 0.731794 -0.304517
0.112347 0.123796 -1.11059 0.748056 0.124269 -0.651897
0.00127987 -0.05977 -1.09202 0.142277 -0.609041 -0.780273
0.00992071 -0.294199 -1.06627 -0.736918 -0.0571831 -0.673559
-0.0139039 -0.0654316 -1.08231 -0.0887914 -0.6211 -0.778686
-0.0360486 -0.0671503 -1.07627 -0.234881 -0.61066 -0.756258
0.0947476 -0.350619 -1.02508 0.778428 -0.381157 -0.498767
0.0301562 -0.0914851 -1.05395 -0.3862 -0.584467 -0.713616
-0.0436136 -0.0661031 -1.07931 -0.443277 -0.514195 -0.73424
-0.0694383 0.0605317 -1.10478 -0.766055 -0.134453 -0.628556
0.142722 -0.013481 -1.01793 0.467646 -0.489614 -0.735925
0.13687 -0.109892 -1.03055 0.812676 0.284645 -0.508464
-0.00747376 -0.204048 -0.920197 -0.77921 0.54646 -0.306941
-0.0536776 -0.06854 -1.06923 -0.642616 -0.433626 -0.631675
0.183819 -0.0592372 -0.969887 -0.939079 -0.336701 0.069011
0.0493668 -0.298723 -1.06655 0.693542 -0.302231 -0.653954
0.179457 -0.0611749 -0.993958 0.72179 0.364529 -0.588334
0.150957 -0.0626027 -1.00364 0.466828 -0.0902328 -0.879733
0.175337 -0.0575766 -1.00083 -0.608381 -0.321664 0.725537
0.170954 -0.0619835 -0.99878 -0.442396 -0.104061 0.890762
0.0422818 -0.209957 -1.02802 -0.675106 0.638727 -0.369135
-0.00298302 -0.0738044 -1.07658 0.0758653 -0.705043 -0.705095
-0.00307386 -0.0676737 -1.08024 0.0983845 -0.658172 -0.746411
-0.0282326 -0.272543 -0.991195 -0.750807 0.563791 -0.344134
0.097979 -0.0462263 -1.06905 0.562362 0.0644141 -0.824378
-0.0123821 -0.0730303 -1.0791 -0.0461023 -0.656683 -0.752757
-0.0166108 -0.217677 -0.925449 -0.765536 0.57186 -0.29484
0.111906 -0.393079 -1.07793 0.258706 0.888028 -0.380103
-0.01983 -0.0711043 -1.07954 -0.0623186 -0.640191 -0.765684
0.0994985 -0.106811 -1.05919 0.251955 -0.109724 -0.961498
-0.0392734 -0.0768831 -1.06784 -0.294335 -0.670604 -0.680923
0.0814037 -0.11988 -1.06243 0.160103 -0.155078 -0.974842
-0.0528713 -0.0742028 -1.07022 -0.515044 -0.519336 -0.681923
