ply
format ascii 1.0
comment Created by Open3D
element vertex 1672
property double x
property double y
property double z
end_header
0.13891 -0.07099 -1.04938
0.198407 -0.119321 -1.01144
-0.0429186 -0.0304148 -1.05281
-0.022102 0.0148835 -1.09351
0.0808709 -0.0309084 -1.07235
0.0281252 0.0673144 -1.14504
0.150525 -0.245813 -1.03563
0.209201 -0.119615 -0.96297
0.182863 -0.029755 -1.00284
0.0660815 -0.160961 -1.06111
0.125625 -0.0309657 -1.05065
0.0991912 -0.0259945 -1.06732
0.0676534 -0.0300188 -1.07487
0.0601157 -0.0315361 -1.07488
0.0547711 -0.0288223 -1.07123
0.0405947 -0.0269528 -1.06665
0.034302 -0.0301886 -1.0674
0.10649 -0.182646 -1.11029
0.0211938 -0.0271196 -1.07701
0.11129 -0.338689 -1.01069
0.0502718 0.0917803 -1.13697
0.0165202 -0.0315555 -1.07331
0.00715485 -0.0316167 -1.07521
-0.000545427 -0.0607599 -1.05595
0.135994 -0.0606861 -1.05206
0.19019 -0.0905166 -1.0329
0.0994484 -0.15802 -1.07288
0.00666135 -0.0279135 -1.08234
0.158482 -0.231186 -1.04692
-0.0213914 -0.0331366 -1.06677
0.185613 -0.0322779 -1.0176
0.146624 -0.0299478 -1.04527
0.183588 -0.144978 -1.08857
0.00571941 -0.309591 -1.05661
0.140229 -0.0297281 -1.0535
0.188012 -0.0402074 -1.01785
0.0925946 -0.394694 -1.06905
0.134227 -0.0319528 -1.04998
0.126742 -0.281858 -0.99265
0.130204 0.105946 -1.11265
0.0989708 -0.0315046 -1.06423
0.122818 0.108615 -1.10545
0.0985766 -0.0306125 -1.0667
-0.0143896 0.0145522 -1.10518
0.0810106 -0.0320133 -1.07382
-0.0406005 -0.0317802 -1.05618
0.0764901 -0.238186 -1.08499
0.0730424 -0.0321498 -1.07734
0.0373063 -0.0342003 -1.07032
0.05263 -0.0670925 -1.07334
0.0473856 0.102552 -1.1282
0.088883 -0.0332623 -1.07096
0.0380628 -0.0999396 -1.06253
-0.0657504 0.0556894 -1.06081
0.0283007 -0.0314546 -1.07286
-0.0490252 0.0270524 -1.06846
0.106461 -0.0343459 -1.06468
-0.0427193 -0.0377564 -1.04889
0.207012 -0.109502 -0.965123
-0.0508323 -0.0421067 -1.03558
0.107916 -0.34593 -0.951271
0.191357 -0.0846152 -1.03986
-0.047002 0.109891 -1.09884
0.00651647 -0.0387876 -1.07219
0.0765679 -0.200009 -1.10745
0.00273892 -0.0425534 -1.06727
-0.0326554 -0.374443 -1.00103
-0.00704826 -0.0417253 -1.06805
-0.028742 -0.0715167 -1.0355
0.0565135 -0.0916079 -1.06627
0.0669537 -0.359809 -1.03344
-0.0317566 -0.0420905 -1.05725
-0.0387727 -0.0411938 -1.05144
0.193349 -0.0403611 -1.00018
0.194463 -0.041373 -1.01251
0.157956 0.0396648 -1.10987
0.170768 -0.0401174 -1.02593
-0.0249792 0.0585181 -1.12406
0.170637 -0.0403707 -1.02907
0.162463 -0.0403032 -1.03527
-0.0596353 -0.402646 -1.03067
0.148174 -0.110764 -1.05196
0.083027 -0.211838 -1.10433
0.212505 -0.178084 -1.07961
0.0646308 -0.378612 -1.04938
0.156189 -0.0395182 -1.04079
0.154906 -0.0419525 -1.04801
0.135152 -0.0408987 -1.04906
0.0846586 -0.201614 -1.10744
-0.0311 -0.403077 -1.06402
0.209116 -0.160663 -1.06991
0.0997572 -0.0417955 -1.06719
0.0475148 -0.248227 -1.08688
0.0835537 -0.0369345 -1.07137
0.0600772 -0.0412449 -1.07493
0.0896148 -0.174843 -1.07928
0.0467135 -0.0415378 -1.07107
0.168592 0.144922 -1.09144
0.212817 -0.170211 -1.08081
0.0377942 -0.041421 -1.06996
0.0330711 -0.0426722 -1.06854
0.0899002 -0.377253 -1.02222
-0.0515661 0.0542926 -1.07854
0.108145 -0.0432175 -1.0634
0.0290235 -0.0411742 -1.07311
0.0427277 -0.0918623 -1.06426
0.148915 -0.167793 -1.11616
0.179284 -0.042154 -1.02548
0.0602641 0.101889 -1.12482
0.153611 -0.0412879 -1.05602
0.198574 -0.0434307 -1.01931
0.00447504 0.118207 -1.12968
0.00482194 -0.0791173 -1.04139
-0.0366809 -0.0500745 -1.04803
0.0893203 -0.229641 -1.09199
0.18616 -0.0440587 -1.02303
0.116397 -0.0452886 -1.05965
0.0926162 -0.36437 -0.999872
0.0110039 -0.0529427 -1.06422
0.11732 0.060052 -1.11682
-0.009173 -0.0511976 -1.06038
-0.0115811 -0.0471377 -1.06677
0.20568 -0.151478 -1.06158
0.0769758 -0.313062 -1.05253
-0.0420039 -0.0518706 -1.04024
0.189861 -0.0471597 -1.01766
0.190159 -0.0511786 -1.02415
0.0626351 0.087717 -1.141
0.181439 -0.0500364 -1.02814
-0.0456101 0.047387 -1.08367
0.172878 -0.0499637 -1.03176
0.0923046 -0.101417 -1.07384
0.160966 0.0667403 -1.1169
0.170092 -0.0480034 -1.02662
0.164482 -0.0471019 -1.03699
0.142317 -0.0456169 -1.04854
0.0602108 -0.0515396 -1.07343
0.176957 0.0135399 -1.04889
0.0469368 -0.0513469 -1.07054
0.0980567 -0.100085 -1.0731
0.0390487 -0.0509974 -1.07065
0.00202188 0.00163446 -1.10905
0.0920342 -0.0712625 -1.07454
0.168623 -0.158766 -1.10719
-0.0116747 -0.409763 -1.07812
-0.00412749 0.170267 -1.08115
0.18634 -0.0661478 -1.03129
0.0325485 -0.0517332 -1.06778
0.00316532 0.0104235 -1.11779
0.0159144 -0.050689 -1.06854
0.113355 -0.336351 -0.964822
0.188686 -0.0916983 -1.03894
0.0460337 -0.111005 -1.06203
0.165863 -0.0515322 -1.0449
0.143498 -0.0513886 -1.04609
-0.00143708 -0.0518911 -1.06118
0.135987 -0.0493019 -1.05267
-0.00674947 -0.271843 -1.06878
0.0911222 -0.051473 -1.07203
0.08225 -0.0512073 -1.07646
-0.0264893 -0.050975 -1.06123
0.159258 -0.235987 -1.03236
-0.0514981 -0.0529292 -1.02585
-0.0343645 0.046754 -1.1004
0.109193 -0.0512043 -1.06117
0.201816 -0.0518155 -1.02725
0.0843594 -0.384467 -1.04849
-0.0495406 -0.0604525 -1.02108
0.0508612 -0.111349 -1.0612
-0.0515695 0.048701 -1.07669
0.109049 -0.0512513 -1.06302
0.171828 -0.0531473 -1.0404
-0.0423842 -0.0613338 -1.02974
0.0799843 -0.253194 -1.0668
0.203491 -0.0536604 -1.00871
0.216874 -0.135545 -0.940967
0.12407 -0.0534236 -1.05659
-0.0384839 0.039752 -1.0894
0.163711 0.0980771 -1.12451
0.134901 -0.212331 -1.09936
0.00406846 -0.056601 -1.06007
-0.00750427 -0.0583936 -1.05659
0.0858941 -0.238646 -1.08226
0.203626 -0.0559825 -1.00917
0.193019 -0.0544779 -1.02991
0.114192 -0.317423 -1.02583
0.0896216 -0.0260974 -1.07022
0.117014 -0.206649 -1.11014
0.134146 -0.254916 -1.03864
0.0619414 -0.375384 -1.047
0.150666 -0.0548361 -1.04414
0.0468629 -0.061308 -1.06994
0.118698 -0.308162 -0.984247
0.0394385 -0.0606088 -1.06972
0.0642237 -0.243805 -1.08404
0.0332777 -0.0618735 -1.06746
0.202953 -0.165007 -1.09067
0.193933 -0.0609277 -1.03115
0.161716 -0.235838 -1.04535
0.0337575 0.0772923 -1.14822
0.0533813 -0.174799 -1.03861
0.19034 -0.0582852 -1.02809
0.0290843 0.0785555 -1.14698
0.0682285 -0.170926 -1.06045
-0.0297285 -0.289188 -1.04589
0.150942 -0.195852 -1.11721
0.183461 -0.0593587 -1.03065
-0.0483222 0.0385901 -1.0747
0.108551 -0.0228391 -1.064
0.176214 -0.0590544 -1.04112
0.185364 -0.203762 -1.06077
0.16731 -0.0602267 -1.04893
0.015217 0.0815982 -1.14094
0.0843286 -0.11791 -1.07159
0.00662539 -0.26188 -1.07529
0.156464 -0.0608683 -1.04712
0.144894 -0.0611275 -1.04592
0.103582 -0.161288 -1.08034
0.127158 -0.0607407 -1.05344
0.130316 -0.222514 -1.09003
0.0915032 -0.0611617 -1.07402
0.203602 -0.182101 -1.0818
0.0821639 -0.0612719 -1.07743
0.127444 -0.0632837 -1.05533
0.0601441 -0.0618197 -1.07325
0.0550265 -0.0599513 -1.07121
0.00853398 -0.0639535 -1.05514
0.206011 -0.0609109 -1.01838
0.220047 -0.146494 -0.946587
-0.0427392 0.0377655 -1.08191
0.138316 -0.207456 -1.10404
0.177475 -0.0584936 -1.03427
0.170244 -0.0608101 -1.05271
0.0790603 -0.122006 -1.06859
0.0674255 -0.270233 -1.05874
0.103803 0.078854 -1.12863
0.162932 -0.0571944 -1.05224
-0.0186034 -0.0652941 -1.04623
0.107172 -0.0212323 -1.05831
0.177809 -0.0629592 -1.05063
-0.013333 0.0382601 -1.12684
-0.0348263 -0.0715665 -1.02741
0.0677092 -0.278079 -1.05443
0.202851 0.059308 -1.08661
0.00116265 -0.0680888 -1.05206
0.0644414 -0.281109 -1.05294
-0.00391584 -0.0713869 -1.04839
0.218693 -0.167693 -1.06786
0.0774797 -0.350872 -1.02932
-0.0126124 -0.0700818 -1.0452
0.140131 -0.236843 -1.06012
0.140226 -0.408696 -0.98611
-0.0168746 -0.0715672 -1.04236
0.11608 -0.310432 -1.02031
0.0726461 -0.104459 -1.06411
0.0252955 -0.0420456 -1.0694
0.0343523 -0.0720383 -1.06611
-0.0583392 -0.0735442 -0.995025
0.110573 0.0684966 -1.12434
0.208572 -0.064967 -1.02807
0.200775 -0.0715173 -1.02291
0.0686332 -0.0720862 -1.07262
-0.0587597 -0.388326 -1.00936
0.0469423 -0.0716534 -1.06883
0.19658 -0.162285 -1.09438
0.0149441 -0.351152 -1.03917
0.0614421 -0.204866 -1.09761
0.0400501 -0.0696939 -1.06933
0.20711 -0.12969 -1.00767
0.0293878 -0.0679568 -1.0716
-0.0190748 -0.0417753 -1.06448
0.0987112 -0.104892 -1.07869
0.193493 -0.0697403 -1.0321
0.10814 -0.0308245 -1.05949
0.179377 -0.0700055 -1.05115
0.172029 -0.0708645 -1.05076
0.0791012 -0.131269 -1.06736
-0.0462809 0.0886336 -1.10824
-0.0274084 -0.0402047 -1.06235
0.16551 -0.0704514 -1.04725
0.0849449 -0.128065 -1.07089
0.00699382 -0.271769 -1.07219
0.210255 0.0799948 -1.08152
0.157814 -0.0700138 -1.04478
0.20805 0.0778535 -1.07641
0.153547 -0.0717767 -1.0434
0.11499 0.0334756 -1.10253
0.136007 -0.0710186 -1.05285
0.198926 -0.120812 -1.02069
0.119252 -0.0710064 -1.06078
0.187392 -0.100771 -1.04544
0.116495 -0.157847 -1.08504
0.0915688 -0.372294 -1.01466
0.0749091 -0.0703633 -1.07639
0.0558449 -0.072597 -1.07054
0.222022 -0.151281 -0.998524
0.00345236 -0.0740341 -1.04725
0.206615 -0.0717629 -1.01888
0.0398943 -0.0032801 -1.08775
-0.00969035 -0.0754265 -1.04124
0.104354 0.0148798 -1.08535
0.128642 -0.0809135 -1.05719
0.220537 -0.16912 -1.07663
-0.0243653 -0.0753222 -1.03333
-0.0349499 -0.0803933 -1.01593
0.130804 -0.243359 -1.05771
-0.0144419 -0.0763652 -1.03806
0.130301 -0.208222 -1.10692
-0.00460034 0.0678814 -1.13445
-0.0205036 -0.0789667 -1.03169
0.125239 -0.212702 -1.10162
0.127167 0.0783367 -1.11651
-0.00248562 -0.0773381 -1.04147
0.199317 -0.079765 -1.01972
-0.00790247 -0.078927 -1.03705
0.16253 -0.136517 -1.06893
0.145224 -0.010031 -1.05027
0.184955 0.131687 -1.0973
0.0238718 0.137635 -1.12441
0.017555 -0.0823583 -1.04885
0.0132835 -0.0776533 -1.05306
0.15787 -0.19283 -1.11594
-0.0289168 -0.0840502 -1.01355
0.0416097 0.03598 -1.14104
0.193368 -0.0744651 -1.04188
0.11582 -0.319605 -0.963325
0.187454 -0.0737867 -1.05436
0.0468791 -0.0809873 -1.0677
-0.0581918 -0.407346 -1.02984
0.140828 -0.152118 -1.08615
0.0393276 -0.0802283 -1.06777
0.141048 0.0781837 -1.12201
0.0988557 -0.140765 -1.07187
0.19527 -0.143048 -1.06426
0.136204 -0.148207 -1.07673
0.127946 0.0193307 -1.08079
0.034165 -0.0817475 -1.06592
0.134308 0.0742958 -1.11732
0.10648 -0.141254 -1.07713
0.193522 -0.138728 -1.05632
0.193846 0.129346 -1.10938
0.0599573 0.128074 -1.12694
0.171858 -0.142821 -1.08359
0.102793 -0.0806584 -1.07183
0.0276062 -0.0798465 -1.06486
0.186742 0.128388 -1.10148
0.146222 -0.0116334 -1.04644
0.167412 -0.139434 -1.0755
0.011298 -0.083021 -1.04063
0.000957315 -0.082071 -1.03419
0.192714 -0.0798674 -1.03448
0.0498308 0.097465 -1.13492
0.0904019 -0.0306088 -1.06763
0.113869 -0.214684 -1.09978
0.216122 0.0851642 -1.10188
0.15381 -0.0808858 -1.04295
0.0262223 -0.273065 -1.06517
0.0276235 0.107812 -1.13111
0.146601 -0.0813876 -1.04643
0.109685 -0.38392 -1.02857
0.146091 -0.080705 -1.04795
0.119888 -0.0808694 -1.06223
0.18862 -0.110416 -1.04487
0.111401 -0.0808515 -1.06786
-0.13416 -0.485236 -0.9522
0.143229 0.148016 -1.0743
0.069802 -0.0813339 -1.07163
0.083777 0.0577171 -1.14079
0.0630897 -0.0822422 -1.07035
0.21469 -0.140141 -0.971247
0.133516 0.0796095 -1.11998
-0.0152811 -0.0852176 -1.01791
-0.0333483 -0.085714 -1.00881
0.192977 -0.0768627 -1.0404
0.116469 -0.211042 -1.10451
0.189295 -0.0804372 -1.04674
0.14384 -0.256975 -1.01986
0.189547 -0.0794627 -1.05322
0.185644 -0.0767361 -1.0561
-0.0696962 0.0470965 -1.05223
0.0318374 -0.109747 -1.0466
0.180094 -0.0805848 -1.04931
-0.00492708 -0.0852515 -1.02356
-0.0190998 -0.0876175 -1.01114
0.0354897 0.0414451 -1.14679
0.132883 0.000911757 -1.06959
0.165169 -0.164258 -1.11923
-0.0123217 -0.0880098 -1.01245
0.0285819 0.125346 -1.12889
0.00846615 0.0148523 -1.12029
0.0160627 -0.0890077 -1.04006
0.115641 -0.242199 -1.07504
0.0107522 -0.0902167 -1.03031
-0.0215224 -0.364789 -1.00577
0.116715 -0.237569 -1.07989
-0.0191699 -0.09083 -1.00059
-0.029764 -0.0920902 -0.989127
-0.0384178 -0.399911 -1.05605
0.174245 -0.0838007 -1.04482
0.112049 -0.0819806 -1.07164
0.0142486 0.12769 -1.12714
0.0799934 0.0940447 -1.13148
0.0978818 -0.0829194 -1.07711
0.0510379 -0.0851254 -1.06196
0.218143 -0.141852 -0.993911
0.0141391 0.0179945 -1.1247
0.021052 -0.0883113 -1.04672
0.00160557 -0.0904109 -1.01776
0.203912 -0.0907729 -0.997278
0.0369348 -0.0907089 -1.06401
0.063948 0.0684802 -1.14404
0.0294162 -0.0920928 -1.05577
0.107548 -0.202311 -1.11297
-0.0572685 -0.388083 -1.00075
0.067464 -0.231921 -1.09516
0.198296 -0.0917136 -1.01284
0.198037 -0.0875488 -1.01822
0.195493 0.0393205 -1.06795
0.157605 -0.08789 -1.04155
0.0439715 0.0479919 -1.14732
0.069902 -0.091151 -1.07104
0.0932951 -0.2442 -1.07346
0.0633365 -0.0902595 -1.07023
0.202776 -0.0605011 -1.02868
0.0221392 -0.0908085 -1.0452
0.111604 -0.200008 -1.1147
0.186847 -0.0898558 -1.04624
0.175195 -0.091647 -1.04497
0.166447 -0.0903842 -1.04281
0.201287 0.0406381 -1.07324
0.207306 0.062088 -1.07822
0.155787 -0.0913341 -1.04521
0.138457 -0.0907301 -1.05479
0.146954 -0.0908059 -1.04963
0.16296 -0.21914 -1.06336
0.0217919 -0.313352 -1.05261
0.135823 -0.246742 -1.05095
0.129318 -0.0911294 -1.0593
0.170296 -0.147451 -1.08805
0.0575481 0.116311 -1.12764
0.0233662 0.128429 -1.12587
0.103322 -0.0902126 -1.07365
0.174508 -0.148702 -1.09645
0.103682 -0.0917606 -1.07529
0.0927138 -0.0915263 -1.07469
-0.0109964 -0.090123 -1.00591
0.0844867 -0.0913133 -1.07418
0.12625 -0.163633 -1.10154
0.212511 0.0870749 -1.094
0.00723123 -0.244918 -1.06425
0.148827 -0.0913557 -1.04552
0.19311 -0.0934857 -1.01657
0.161594 -0.0928968 -1.03985
0.0639059 -0.0951478 -1.0676
0.197565 -0.100057 -1.01165
0.192234 -0.0997904 -1.01662
0.190562 -0.100029 -1.02172
0.0979878 -0.339978 -1.02602
0.00790416 -0.0699346 -1.05252
0.0431318 0.0770933 -1.14638
0.0701009 -0.101204 -1.06974
0.0149891 -0.0717182 -1.05657
0.0645014 -0.102527 -1.06602
0.0832971 0.0446427 -1.13614
-0.0257597 -0.044518 -1.05834
0.202101 -0.108413 -0.938942
-0.022412 -0.0523894 -1.05659
0.198628 -0.1919 -1.06543
0.17492 -0.100768 -1.04334
0.15685 -0.100946 -1.04607
0.138966 -0.100611 -1.05594
0.0193275 -0.0552037 -1.06384
0.178411 -0.194204 -1.09512
0.130019 -0.100989 -1.05991
0.190618 -0.101689 -1.0342
0.180768 -0.10082 -1.04562
0.122037 -0.100982 -1.06567
0.0209123 -0.38373 -1.07582
0.140097 0.138007 -1.08779
0.112227 -0.101816 -1.07318
0.0586875 0.107061 -1.12803
0.0186764 -0.0624693 -1.0624
0.104566 -0.101312 -1.07646
0.0637269 -0.339199 -1.051
0.205996 -0.109138 -0.985202
0.119719 -0.101966 -1.06885
0.205387 -0.109975 -0.968481
0.203894 -0.108304 -1.00006
0.196603 -0.110103 -1.01052
0.19167 -0.108896 -1.01642
0.092476 -0.330972 -1.03912
0.204237 -0.111292 -1.00505
0.193132 -0.109279 -1.0234
0.00122561 0.0885521 -1.13976
0.0702407 -0.110939 -1.06841
0.207061 -0.116911 -0.944792
-0.0129381 -0.280616 -1.06597
0.20011 -0.1855 -1.0761
0.185427 -0.110353 -1.04098
-0.0365387 0.0834418 -1.11755
0.167167 -0.109513 -1.0474
0.157299 -0.110413 -1.04838
0.104523 -0.394419 -0.916658
0.130275 -0.110952 -1.06149
0.122025 -0.109945 -1.06622
0.0927662 0.0678097 -1.13644
0.122367 -0.111551 -1.06863
0.119432 0.167728 -1.04202
0.113719 -0.11119 -1.07298
0.0184266 -0.0723198 -1.05795
0.0587958 0.0990037 -1.13043
0.0861211 -0.219817 -1.10296
0.146959 -0.0407335 -1.05048
0.106218 -0.110922 -1.07701
0.0991453 -0.111852 -1.07366
0.206903 -0.117924 -0.974239
0.207243 -0.121029 -0.937884
0.208666 -0.120187 -0.982914
0.175488 -0.211078 -1.0621
0.0389633 -0.116907 -1.05234
0.209535 -0.121541 -0.947715
0.203603 -0.11579 -1.00261
0.0937419 -0.212561 -1.10683
0.176959 -0.13251 -1.07161
0.162038 -0.232476 -1.02739
0.0897489 -0.188037 -1.09393
0.187675 -0.0994953 -1.03731
0.160976 -0.114683 -1.05329
0.0416492 -0.290744 -1.04853
0.199088 0.0377869 -1.06076
0.136823 -0.114996 -1.06169
0.11739 -0.172563 -1.10381
0.100381 -0.39722 -0.904289
0.133973 -0.11448 -1.0628
0.079433 -0.393255 -1.08328
0.0705605 -0.120544 -1.06726
0.0493225 -0.120023 -1.06626
0.210265 -0.125413 -0.9431
0.197597 -0.118655 -1.03536
0.203082 -0.0891385 -0.983965
0.17098 -0.118741 -1.05353
0.140505 -0.12087 -1.05829
0.0871197 -0.38956 -0.911648
0.0684201 -0.239082 -1.09011
-0.0169461 -0.0229452 -1.07389
0.210135 -0.125523 -0.957088
0.00849479 0.0674154 -1.14017
0.154443 -0.13871 -1.06996
0.21137 -0.122676 -1.00221
0.198035 -0.121066 -1.04279
0.126169 -0.278103 -1.02338
0.088707 -0.182828 -1.08443
0.053188 -0.231207 -1.09167
0.188734 -0.120912 -1.04625
0.161093 -0.11982 -1.0584
0.139709 -0.120236 -1.06266
0.130486 -0.119857 -1.06169
0.123243 -0.121376 -1.07015
0.210437 -0.131455 -0.920449
0.216104 -0.130842 -0.952174
0.108892 -0.310629 -1.02867
0.169844 -0.205071 -1.07901
0.210449 -0.128868 -0.969714
0.0485215 0.00709683 -1.10096
0.078113 -0.234365 -1.09067
0.131808 -0.12172 -1.06498
0.121302 -0.290188 -1.00569
0.0874149 -0.121962 -1.0685
0.0887592 -0.3885 -0.916387
0.115268 -0.141084 -1.07648
0.0374507 -0.126079 -1.04317
0.095373 0.0226511 -1.11449
0.213588 -0.133121 -0.926717
0.201447 -0.123429 -1.03258
0.195213 -0.118365 -1.05194
0.0545708 -0.123338 -1.07304
0.202059 -0.121438 -1.03639
0.197834 -0.122074 -1.04981
0.165911 -0.123777 -1.06371
0.213297 -0.136905 -0.917137
0.0662217 -0.131667 -1.06366
0.0567622 -0.131249 -1.06269
0.0516626 -0.133137 -1.05844
0.216443 -0.139829 -0.927147
-0.0154768 -0.0558199 -1.05406
0.218898 -0.138392 -0.951054
0.20562 -0.132112 -1.01528
0.180036 -0.123599 -1.05882
0.0932206 0.0470632 -1.13131
0.205745 -0.171951 -1.10002
0.155229 -0.221072 -1.06947
0.0939131 -0.220137 -1.1029
0.071016 -0.131854 -1.06578
-0.0301393 -0.0505728 -1.05545
0.125572 0.0876259 -1.11745
0.219232 -0.139409 -0.940905
0.218192 -0.139618 -0.958854
0.213608 -0.137745 -0.963727
0.212858 -0.133076 -0.982221
0.0458654 0.00504998 -1.09508
0.137155 -0.0612955 -1.04976
-0.00612883 -0.0650225 -1.05159
0.0799835 -0.229634 -1.09627
-0.00370249 -0.303049 -1.0457
0.182526 -0.127733 -1.05146
0.15057 -0.229406 -1.0579
0.0667715 -0.0401517 -1.0789
0.150648 -0.128339 -1.06304
0.137162 -0.126797 -1.06035
0.13191 -0.13098 -1.06517
0.0665143 -0.263189 -1.06188
0.21466 -0.140513 -1.00201
0.128791 -0.0685121 -1.05316
0.106525 -0.131275 -1.0768
-0.0346722 -0.377351 -0.993201
0.0993116 -0.131469 -1.07315
0.118066 -0.31904 -0.998041
0.0929673 -0.130862 -1.07185
0.198827 -0.130361 -1.04496
0.158897 -0.142688 -1.07843
0.200629 -0.131748 -1.04875
0.189753 -0.130001 -1.04796
0.182652 -0.131368 -1.05951
0.0967918 -0.303092 -1.04147
0.0579093 -0.261981 -1.06502
0.155583 -0.131942 -1.06776
0.131579 -0.13154 -1.06085
0.123754 -0.131297 -1.07135
0.131295 0.147506 -1.07085
0.0261008 -0.228842 -1.07858
0.115181 -0.13117 -1.0764
0.13231 0.0888948 -1.1225
0.220125 -0.142704 -0.943383
0.0935779 -0.161486 -1.07179
0.0279773 0.0708471 -1.14875
0.0727114 -0.13516 -1.06374
0.216445 -0.137486 -0.996868
0.165951 -0.229465 -1.02234
0.0946472 -0.321754 -1.04195
0.209457 -0.139636 -1.009
0.190902 -0.132902 -1.05317
0.0664484 -0.141829 -1.06303
0.208503 -0.139006 -1.01708
0.172971 -0.078034 -1.04919
0.0873526 -0.139805 -1.06787
0.155186 -0.2177 -1.07542
0.0796888 -0.141386 -1.06656
0.0742951 -0.0515245 -1.07759
0.0727202 -0.1407 -1.06368
0.0687432 -0.137436 -1.06632
0.117518 0.149847 -1.08096
0.0870428 -0.169132 -1.06783
0.222236 -0.149537 -0.948387
0.208196 -0.135647 -1.03171
0.112336 -0.387661 -1.03283
0.0222451 0.118886 -1.12746
-0.0140159 -0.266842 -1.05721
0.0156228 -0.361335 -1.03756
0.147259 -0.134943 -1.06858
0.217759 -0.146153 -0.972138
0.211709 -0.140937 -1.02958
0.203428 -0.157789 -1.07639
0.00849133 0.0379685 -1.13723
0.198724 -0.138408 -1.04692
0.192434 -0.136483 -1.04766
0.140175 -0.258261 -1.03122
0.124545 -0.141038 -1.07283
0.201677 -0.141293 -1.0501
0.159044 0.143946 -1.10209
0.199518 -0.179516 -1.09617
0.0617773 -0.318846 -1.05317
0.199856 0.105428 -1.09017
0.139608 -0.139357 -1.06919
0.198904 -0.177778 -1.10453
0.220717 -0.15072 -0.9906
0.0618059 -0.389032 -1.07098
0.182077 -0.136671 -1.07182
0.0734459 -0.177664 -1.06084
0.180905 -0.135539 -1.07658
0.122939 -0.138867 -1.07752
0.217232 -0.147889 -0.996984
0.216131 -0.14896 -1.00236
0.180858 -0.140325 -1.08067
0.0561987 -0.151185 -1.05676
0.180423 0.0542568 -1.10944
0.0470056 -0.152479 -1.0424
0.0364849 -0.321935 -1.05614
0.213086 -0.147724 -1.01646
0.0260709 -0.234311 -1.08571
-0.00509735 -0.287366 -1.0619
0.214627 -0.143779 -1.03771
0.0700952 -0.0215502 -1.07329
0.0727288 -0.149442 -1.06358
-0.0189005 -0.270555 -1.05156
0.218708 -0.157751 -0.939474
0.0208521 -0.233469 -1.0752
0.101011 0.176033 -1.0502
0.0522842 -0.252983 -1.07643
0.153752 0.098601 -1.12541
0.0883069 0.157352 -1.09632
0.0622881 -0.190799 -1.04678
0.215658 -0.144239 -1.04481
0.187558 -0.143555 -1.07731
0.0895425 -0.0135339 -1.06749
0.106004 -0.150935 -1.07602
0.0993573 -0.151327 -1.07272
0.198663 -0.148184 -1.06547
0.0177462 -0.235124 -1.06887
0.198085 0.127273 -1.12112
0.0218757 -0.0796059 -1.05743
0.100484 -0.0831256 -1.0761
0.178798 -0.144362 -1.09365
0.0462918 -0.231702 -1.09056
0.152066 -0.145269 -1.08012
0.153198 0.145826 -1.09129
0.194906 -0.18424 -1.08724
0.12558 -0.146818 -1.0752
0.118988 -0.153022 -1.08339
0.114672 -0.149425 -1.07679
0.0563655 -0.163589 -1.05152
0.221249 -0.157876 -0.989957
0.149813 -0.148452 -1.08286
0.126764 -0.150859 -1.08037
0.0603043 -0.308202 -1.04391
0.219179 -0.15638 -1.0015
0.19911 -0.151618 -1.0731
0.191106 -0.149805 -1.07899
0.069355 -0.199791 -1.09541
0.00961438 0.0576789 -1.14034
0.162886 -0.149434 -1.08912
0.217692 -0.162979 -0.971975
0.0691572 -0.315591 -1.05345
0.222122 -0.156861 -1.02216
-0.140861 -0.488576 -0.913473
0.00752571 -0.00121873 -1.10773
0.0689902 -0.0615389 -1.07468
0.186296 -0.14845 -1.08346
0.102376 -0.301526 -1.03735
0.190179 -0.203063 -1.04632
-0.137856 -0.4889 -0.923208
0.0124106 0.000591994 -1.1141
0.0748136 -0.0613439 -1.0771
0.203316 -0.0986176 -0.984902
0.18672 -0.149951 -1.09123
0.209552 -0.119221 -0.996736
0.153346 -0.152381 -1.0916
0.153364 -0.21432 -1.08421
0.127025 -0.0511204 -1.0532
0.222686 -0.158814 -1.00762
0.0631213 -0.31229 -1.04929
0.223464 -0.157879 -1.03092
0.153918 -0.245483 -1.01502
0.0667126 -0.383107 -1.05847
0.222204 -0.15497 -1.03251
-0.134049 -0.489374 -0.931095
0.185842 -0.152951 -1.09745
0.192445 -0.198426 -1.06283
0.131543 -0.154744 -1.08849
0.133807 0.0679682 -1.11365
0.110982 -0.155047 -1.08303
0.036953 -0.330743 -1.05566
0.125133 -0.280317 -1.01761
0.0924387 -0.180551 -1.08992
0.221735 -0.15584 -1.03697
-0.0637522 -0.408577 -1.0234
0.0248424 -0.0515314 -1.06752
0.144789 -0.15503 -1.09305
0.180594 -0.213439 -1.04205
0.221986 -0.15906 -1.04345
0.160684 -0.213202 -1.07914
0.215661 -0.156434 -1.05004
0.225765 -0.15977 -1.04019
-0.139868 -0.499172 -0.918868
0.222769 -0.16031 -1.05428
0.215619 -0.159623 -1.05658
0.193628 -0.15441 -1.08572
0.0722101 -0.202886 -1.10273
0.149431 0.111308 -1.12071
0.122169 -0.160507 -1.09445
0.0518702 -0.169866 -1.03925
0.107623 -0.347134 -0.976748
0.171345 0.141669 -1.09088
0.21023 -0.157479 -1.06349
0.198458 -0.154904 -1.0803
0.170263 -0.154943 -1.10414
0.0956068 -0.372239 -0.973576
0.00204182 0.016946 -1.12224
0.0157263 -0.0414319 -1.07085
0.122848 -0.189928 -1.12104
0.138336 -0.157107 -1.09066
0.173491 -0.221739 -1.02862
0.202601 -0.161151 -1.0819
0.19652 -0.15822 -1.08724
0.144071 -0.158709 -1.09759
0.174706 -0.219343 -1.03987
0.134197 -0.160992 -1.09987
0.0980051 -0.164344 -1.07776
0.0965908 0.18128 -1.03338
0.0744618 -0.170679 -1.06213
0.0221997 -0.366433 -1.03781
0.0258449 0.0342191 -1.13737
-0.00534829 -0.0324011 -1.07364
0.156262 -0.158875 -1.10164
0.116229 -0.16444 -1.09497
0.139639 -0.407386 -0.974772
0.091072 -0.169912 -1.07261
0.189789 -0.160036 -1.10007
0.147236 -0.161583 -1.10456
0.141576 -0.407259 -0.982602
0.0966072 -0.17195 -1.08047
0.100944 -0.0385437 -1.06401
0.208173 -0.163629 -1.07778
0.10033 -0.354107 -0.991642
0.152276 0.00709454 -1.06235
0.184021 -0.160106 -1.11357
0.037118 -0.376016 -1.05723
0.0320582 0.0370053 -1.14287
-0.00296849 -0.0316854 -1.07718
0.159968 -0.162197 -1.11019
0.106309 -0.169659 -1.08812
0.102202 -0.167286 -1.082
0.119468 -0.388194 -0.943114
0.225388 -0.162408 -1.0698
0.173371 -0.161125 -1.11548
0.12989 -0.165107 -1.10839
0.2075 0.0870284 -1.08272
0.0134578 -0.242608 -1.07474
-0.0237029 -0.370257 -1.00941
0.0867234 -0.301132 -1.05009
0.220705 -0.168208 -1.0526
0.219957 -0.165926 -1.06006
0.150914 -0.164499 -1.11261
0.212277 -0.166875 -1.0716
0.184452 -0.164188 -1.12093
0.177625 -0.164003 -1.12475
0.178084 0.0360257 -1.07617
0.0937521 -0.179613 -1.08406
0.200655 -0.167847 -1.09807
0.196835 -0.165942 -1.1026
0.13808 -0.26165 -1.02216
0.0282623 -0.369251 -1.04289
0.168121 -0.165523 -1.12539
0.159097 0.118819 -1.11419
0.200139 -0.171839 -1.10346
0.131578 -0.173287 -1.12212
0.0987129 -0.18078 -1.09006
0.131064 -0.158001 -1.09332
0.219953 -0.172337 -1.08305
0.18657 -0.171575 -1.12162
0.204288 -0.0999007 -0.975212
0.168729 -0.171921 -1.12423
0.164852 -0.171856 -1.1229
0.14532 -0.172443 -1.12644
0.0699861 -0.187845 -1.05965
0.214878 -0.174009 -1.08499
0.0911161 -0.0422622 -1.07096
0.112514 -0.178248 -1.10443
0.0922006 -0.111357 -1.07241
0.00113418 -0.262046 -1.07536
0.192858 -0.173135 -1.1177
0.0966171 0.0124481 -1.09029
0.124527 -0.175693 -1.12233
0.105114 -0.18097 -1.09895
0.211356 -0.127658 -0.985972
0.073581 -0.189455 -1.06897
-0.0558582 -0.404116 -1.03755
0.174622 -0.198376 -1.09117
0.215639 -0.176478 -1.08628
0.206591 -0.177803 -1.09201
0.0312927 -0.320648 -1.05374
0.163365 -0.231106 -1.03523
0.216514 -0.148569 -1.02535
0.0856817 -0.188166 -1.08709
0.0816801 -0.0413895 -1.0754
0.0549896 -0.242915 -1.08869
0.131577 -0.182613 -1.12283
-0.00824237 -0.311295 -1.04376
0.187939 -0.140368 -1.06948
0.111773 -0.183711 -1.11779
0.194222 0.0278847 -1.04859
0.0748329 -0.192948 -1.08158
0.154648 -0.181718 -1.12294
-0.0455533 0.0973982 -1.10752
-0.0442962 -0.0707221 -1.0175
0.187222 -0.196995 -1.07479
0.104933 -0.074452 -1.07448
0.0851061 -0.186471 -1.10341
0.0220738 -0.37711 -1.05596
0.204049 -0.187892 -1.0624
0.0750783 0.174863 -1.09042
0.191636 -0.179963 -1.10875
0.00158882 0.057934 -1.13864
0.147548 -0.242598 -1.04325
0.0728782 0.17626 -1.08569
0.192528 -0.177347 -1.11719
0.135392 -0.228015 -1.08243
0.177091 -0.179837 -1.12169
0.0849988 0.161654 -1.09126
0.165993 -0.181749 -1.12239
0.122955 -0.227914 -1.09059
0.0713372 -0.0110366 -1.07982
0.100525 -0.185896 -1.11225
0.0587143 -0.231642 -1.09412
0.0824627 -0.192599 -1.09843
0.205126 -0.187935 -1.0677
-0.00688428 -0.386231 -1.08457
-0.028639 -0.0563527 -1.05021
0.198685 -0.189465 -1.07403
0.0902065 -0.336702 -1.03811
0.18968 -0.183558 -1.10043
0.147365 -0.239218 -1.04937
0.210432 -0.145841 -1.00821
0.0912834 -0.190961 -1.10633
0.16238 -0.00986476 -1.02832
0.192365 -0.190689 -1.07832
0.143653 -0.252888 -1.03167
0.190808 -0.18861 -1.08431
0.174313 -0.183688 -1.11987
0.218278 -0.150511 -1.03423
0.0986589 -0.192033 -1.11364
0.0582495 -0.239141 -1.09209
-0.0331529 0.107023 -1.11397
0.192183 -0.146607 -1.07102
0.110975 -0.191253 -1.11682
0.185632 -0.187322 -1.0991
0.0657268 -0.151427 -1.06071
0.183372 -0.18491 -1.1141
0.0418575 -0.245514 -1.08409
0.100944 -0.297118 -1.0419
0.192276 -0.200216 -1.05363
0.123276 -0.168877 -1.10439
0.184897 -0.193799 -1.08357
-0.0390456 0.111174 -1.10722
0.104964 -0.19475 -1.11346
0.14783 -0.100684 -1.05111
0.179951 -0.187851 -1.1126
0.173027 -0.19016 -1.11734
0.153642 -0.19078 -1.12054
0.0795396 0.00497584 -1.09386
-0.00474095 -0.0128794 -1.08139
0.0917157 -0.201924 -1.10857
0.201684 -0.0939628 -0.959637
0.172301 -0.123253 -1.06074
0.0980342 -0.202059 -1.11093
0.180349 -0.196503 -1.08898
0.129494 -0.195932 -1.11616
0.0545106 -0.207986 -1.08712
0.186601 -0.206781 -1.04749
0.178266 -0.203947 -1.07157
0.177132 -0.0242715 -1.00315
0.204416 -0.0721415 -1.00901
0.0466962 -0.222454 -1.09238
0.0886989 -0.0214409 -1.066
0.119969 -0.201425 -1.11506
0.0598272 -0.213363 -1.09764
0.197676 -0.048356 -1.01324
0.165369 -0.201937 -1.09614
0.177708 0.143867 -1.1056
0.168481 -0.19784 -1.10578
0.12399 -0.282565 -0.974713
0.141496 -0.198191 -1.1146
0.13325 -0.197948 -1.11576
0.0615435 -0.210039 -1.10173
0.182847 -0.210876 -1.04175
0.199632 -0.0514587 -1.0216
0.165888 -0.204356 -1.08928
0.149571 -0.200266 -1.11049
0.126276 -0.284512 -0.986674
0.137624 -0.20325 -1.10793
0.0776683 -0.20846 -1.10497
0.203933 -0.0803081 -0.997214
0.0446636 -0.214327 -1.08443
0.177283 -0.217354 -1.02506
0.174732 -0.208331 -1.07029
0.181458 0.108502 -1.11452
0.065735 -0.221929 -1.09684
0.15955 -0.19948 -1.10971
0.204064 -0.0787858 -1.01607
0.0506975 -0.214888 -1.09788
0.109257 -0.300721 -1.03101
0.168203 -0.210604 -1.07405
0.0699338 -0.179601 -1.06062
0.168159 -0.206663 -1.08179
0.0017983 -0.0223716 -1.08504
0.175712 -0.127846 -1.06502
0.0975268 -0.210312 -1.11043
0.161422 -0.209131 -1.08666
0.125256 -0.206571 -1.10696
0.114535 -0.121277 -1.07501
0.0391824 -0.223443 -1.09234
0.128102 -0.271734 -1.02612
0.175437 -0.215142 -1.05421
0.144945 -0.141533 -1.07065
0.0525928 -0.23231 -1.09403
0.0536759 -0.37777 -1.05319
0.0578513 -0.181164 -1.04271
0.149386 0.00230718 -1.05971
0.166841 -0.214942 -1.06848
0.104761 0.00877971 -1.08038
0.153813 -0.212922 -1.09015
0.128802 0.15143 -1.06377
0.0315662 -0.232633 -1.08706
0.0598841 -0.221495 -1.09663
0.129128 -0.0105001 -1.05958
0.0492925 -0.220934 -1.09525
0.124378 -0.283127 -1.00351
0.0765022 -0.180553 -1.06692
0.169375 -0.219117 -1.05294
0.08284 -0.181046 -1.07498
0.169267 -0.222338 -1.04419
0.09257 -0.121352 -1.0726
0.0443148 -0.218726 -1.10167
0.16628 -0.0551751 -1.05284
0.169731 -0.225935 -1.02949
0.0324465 -0.226161 -1.08795
0.164789 -0.227074 -1.0415
0.105759 -0.121574 -1.07725
0.149847 -0.219885 -1.07878
0.12205 -0.22221 -1.09239
0.113233 -0.220853 -1.09469
0.103145 -0.219289 -1.0994
0.053222 -0.224769 -1.09172
0.141051 -0.181128 -1.12258
0.110696 -0.071095 -1.0662
0.155375 -0.223983 -1.06134
0.149667 -0.217358 -1.08935
0.135712 -0.219541 -1.0941
0.0303554 -0.258563 -1.0806
0.0213775 -0.387838 -1.08051
0.0377695 -0.231417 -1.09046
0.161311 -0.235491 -1.01227
0.121187 -0.272404 -1.03026
0.158913 -0.227413 -1.0535
0.146698 -0.224025 -1.07371
0.100819 -0.22471 -1.09233
0.157857 -0.239264 -1.01721
0.141576 -0.224718 -1.07739
0.0922558 -0.354967 -1.00869
0.0916255 -0.224952 -1.09617
0.0995408 -0.229328 -1.08913
-0.0601465 -0.0483293 -1.01745
0.156484 -0.240092 -1.02517
0.109599 -0.230424 -1.08628
0.0972497 -0.233463 -1.08454
0.09314 -0.37077 -0.98454
0.0328187 -0.241871 -1.08619
0.136408 -0.233518 -1.0691
0.0841897 -0.378298 -0.925774
0.0477552 0.178235 -1.0819
0.130668 -0.228136 -1.08661
0.0915741 -0.370219 -0.972332
0.154171 -0.242452 -1.02997
0.037977 -0.241332 -1.08826
0.139484 -0.241475 -1.05413
0.106312 -0.235362 -1.08132
0.220254 0.0577 -1.10069
-0.00165603 -0.252058 -1.05582
0.0960207 -0.23937 -1.07943
0.106199 -0.242123 -1.07597
0.106732 -0.23754 -1.08268
0.0293052 0.0447244 -1.1458
0.206573 -0.103243 -0.965148
0.14712 -0.252877 -1.0215
0.0253204 -0.249772 -1.08312
0.142547 -0.24963 -1.03867
0.141005 -0.245652 -1.04682
0.0990597 -0.244403 -1.07271
0.166054 0.041435 -1.10817
0.0419911 -0.25161 -1.08237
0.0328894 -0.251326 -1.08428
0.121214 -0.247168 -1.06839
0.0282523 0.100526 -1.13442
-0.000351346 -0.255631 -1.06921
0.119519 -0.399974 -1.04215
-0.0125747 -0.261779 -1.04921
0.135829 -0.25143 -1.04249
0.0917116 -0.249342 -1.06911
-0.148387 -0.483694 -0.90518
0.0538186 -0.248006 -1.08392
0.0309863 0.0892339 -1.1448
-0.0101996 -0.26297 -1.05739
0.120502 -0.250398 -1.05898
0.102435 -0.251175 -1.0683
0.120282 0.156267 -1.07375
0.0902975 -0.253916 -1.06566
0.114299 -0.247418 -1.07091
0.16341 -0.00333653 -1.03887
0.118284 -0.253889 -1.05404
0.111786 -0.252404 -1.06467
-0.0115471 -0.0824127 -1.02818
0.0202038 -0.261634 -1.07737
0.132738 -0.260321 -1.03587
0.125672 -0.256751 -1.04481
0.105971 0.0930303 -1.11365
0.0790093 -0.260781 -1.0627
0.0603097 -0.257842 -1.06851
0.0478009 -0.262502 -1.06711
0.104757 0.172531 -1.05264
0.0515067 -0.256902 -1.07309
0.0396382 -0.261794 -1.07156
0.039973 -0.257401 -1.07647
0.121931 -0.283036 -0.946553
-0.0416532 -0.379705 -1.02544
0.132553 -0.271845 -1.00154
0.0514422 -0.409521 -1.08653
0.101579 -0.399015 -1.05866
0.10784 -0.398233 -1.05336
0.115019 -0.397955 -1.04469
0.120494 -0.397674 -1.0388
0.13038 -0.397191 -1.02717
0.143577 -0.408229 -0.969779
0.129868 -0.41885 -0.947197
0.145451 -0.411684 -0.955341
-0.123073 -0.483945 -1.03545
-0.124412 -0.486181 -1.02499
0.0880282 -0.399226 -1.07319
0.0937413 -0.399206 -1.06618
0.111794 -0.396194 -1.05241
0.1329 -0.39796 -1.0183
0.135864 -0.398536 -1.01167
0.135761 -0.416152 -0.943522
-0.130472 -0.483824 -1.03507
0.072222 -0.400814 -1.08485
0.078604 -0.400771 -1.07915
0.12502 -0.393992 -1.03773
0.066952 -0.401716 -1.08501
0.138189 -0.4083 -0.969771
0.141617 -0.408386 -0.962326
-0.127423 -0.483013 -1.02929
0.0379919 -0.406033 -1.09142
0.113153 -0.394765 -1.04245
0.127049 -0.394545 -1.02884
0.146845 -0.404613 -0.952367
0.0655957 -0.394778 -1.09039
0.0719731 -0.395818 -1.0848
0.0926672 -0.394878 -1.06458
0.100656 -0.394673 -1.05779
0.10761 -0.394812 -1.05018
0.134489 -0.398274 -0.989235
0.138432 -0.408621 -0.955748
-0.138991 -0.484473 -1.01055
-0.153301 -0.491948 -0.997119
0.0172944 -0.412428 -1.08156
0.079775 -0.394935 -1.0792
0.0865742 -0.394405 -1.07298
0.13701 -0.400901 -0.983387
-0.135605 -0.481589 -1.02249
0.0470741 -0.403347 -1.08766
0.136233 -0.39595 -0.976982
-0.158128 -0.485731 -1.01197
-0.14231 -0.481442 -1.01506
-0.14662 -0.483329 -1.00487
0.13603 -0.393714 -0.984129
0.13831 -0.400311 -0.970203
0.136655 -0.409855 -0.940343
-0.151267 -0.48177 -1.00746
0.0210796 -0.403401 -1.08807
0.105959 -0.390806 -1.03656
0.135067 -0.393689 -0.997951
0.139939 -0.400327 -0.962292
0.0321536 -0.402038 -1.08715
0.0666939 -0.392086 -1.08205
0.0734457 -0.390805 -1.07515
0.079961 -0.390591 -1.06611
0.0795141 -0.389274 -1.05618
0.0857081 -0.390836 -1.0579
0.0924575 -0.390433 -1.05092
0.0910562 -0.388297 -1.04443
0.106213 -0.387789 -1.02622
0.111918 -0.390145 -1.0282
-0.0270507 -0.420954 -1.06685
0.0467025 -0.394266 -1.08724
0.0733353 -0.388218 -1.06179
0.0767258 -0.387231 -1.06431
0.0841666 -0.386853 -1.05494
0.131286 -0.391369 -0.991551
0.141312 -0.400091 -0.949904
-0.159542 -0.481689 -0.999957
0.0651854 -0.386893 -1.0768
0.0707207 -0.386769 -1.07287
0.112802 -0.387977 -1.01543
0.124203 -0.389396 -0.998974
0.13099 -0.391049 -0.977966
0.135763 -0.391939 -0.970113
-0.163816 -0.481092 -0.996884
-0.151657 -0.474676 -0.997132
0.0510906 -0.387057 -1.07955
0.110228 -0.384686 -1.01265
0.124021 -0.388629 -0.984708
0.12527 -0.399529 -0.926989
0.0782337 -0.3856 -1.05256
0.0855009 -0.385164 -1.04509
0.10449 -0.384542 -1.02288
0.118074 -0.385259 -0.984403
0.13921 -0.398566 -0.956089
0.119613 -0.387057 -0.978268
-0.0214589 -0.410339 -1.07386
0.0170265 -0.39268 -1.08535
0.0969146 -0.384237 -1.02966
0.116416 -0.384876 -0.992898
0.129852 -0.398064 -0.931507
0.038049 -0.387366 -1.0799
0.129424 -0.38886 -0.962736
0.135069 -0.39061 -0.955778
0.0173815 -0.389201 -1.08349
0.104008 -0.381843 -1.00763
0.11128 -0.383036 -1.0005
0.119774 -0.384211 -0.969502
0.121607 -0.398403 -0.921063
0.123554 -0.385993 -0.957674
0.127507 -0.387262 -0.94933
0.125147 -0.384624 -0.948815
0.126651 -0.39092 -0.934472
0.117301 -0.398822 -0.91686
0.0103466 -0.392551 -1.08363
0.0506876 -0.382214 -1.06836
0.0656874 -0.380594 -1.05435
0.0770371 -0.380738 -1.03896
-0.153769 -0.482506 -0.996896
0.0835496 -0.379616 -1.03068
0.0970043 -0.380649 -1.01541
0.118154 -0.385684 -0.950743
0.116441 -0.39337 -0.917463
0.0587052 -0.378399 -1.04682
0.0750794 -0.377773 -1.03103
0.109959 -0.381556 -0.986639
0.120144 -0.383292 -0.959859
0.0378146 -0.382466 -1.06949
0.0431215 -0.380099 -1.06179
0.0746104 -0.375987 -1.03542
0.0793226 -0.37536 -1.02963
0.0929891 -0.378195 -1.00802
0.0967303 -0.378328 -1.00151
0.118373 -0.383797 -0.945957
0.119732 -0.389224 -0.929127
0.0165193 -0.385533 -1.07827
0.0888016 -0.375394 -1.02027
0.0910557 -0.377187 -0.993323
0.114034 -0.382867 -0.951064
0.112369 -0.384134 -0.939136
0.114304 -0.385906 -0.934471
0.035989 -0.379035 -1.06038
0.101688 -0.378607 -0.979496
-0.00880254 -0.38731 -1.07708
0.0298421 -0.379889 -1.06462
0.0984354 -0.37749 -0.973442
0.10642 -0.385977 -0.928976
0.108164 -0.391057 -0.910267
0.0988261 -0.394151 -0.896547
0.0215906 -0.378257 -1.05957
0.0296338 -0.376752 -1.05898
0.0501786 -0.374812 -1.0541
0.10185 -0.377065 -0.96701
-0.0259175 -0.391707 -1.06466
0.00929869 -0.382234 -1.07087
0.077028 -0.372012 -1.02377
0.0837151 -0.371082 -1.01687
0.105914 -0.381185 -0.94484
0.10267 -0.383677 -0.930704
0.100357 -0.385368 -0.921519
0.101074 -0.390781 -0.90288
0.0909611 -0.394515 -0.888817
-0.0260363 -0.389653 -1.05874
-0.00444001 -0.383607 -1.07163
0.00845885 -0.377504 -1.06505
0.0151163 -0.377268 -1.06131
0.0362506 -0.374414 -1.05507
0.0585293 -0.369621 -1.03515
0.0693425 -0.372035 -1.03074
0.0746226 -0.367383 -1.01806
0.0883578 -0.372548 -1.00832
0.0989511 -0.3785 -0.951375
0.0961644 -0.384354 -0.916607
0.082388 -0.397001 -0.880331
-0.0446147 -0.396006 -1.04644
0.00598741 -0.376714 -1.06333
0.0965537 -0.382906 -0.9236
-0.0288702 -0.388689 -1.05364
-0.0203805 -0.385615 -1.05613
0.0208484 -0.375235 -1.05571
0.091986 -0.371593 -0.986401
0.0827978 -0.391513 -0.886082
0.0724826 -0.398804 -0.871869
-0.0342212 -0.388833 -1.04683
-0.0239683 -0.385495 -1.05264
-0.00518124 -0.37989 -1.05909
-0.00336718 -0.378032 -1.05272
0.0414651 -0.366722 -1.04253
0.0913631 -0.380022 -0.930577
0.0912367 -0.386016 -0.902606
0.0744241 -0.393222 -0.880434
-0.00837955 -0.378525 -1.04933
0.00964479 -0.375173 -1.05794
0.0285771 -0.371785 -1.04859
0.0898731 -0.381739 -0.916911
0.0860782 -0.383352 -0.904602
0.0829143 -0.386901 -0.895202
-0.0415219 -0.389532 -1.03539
-0.000980049 -0.375705 -1.05053
0.0687948 -0.361182 -1.0274
0.0828247 -0.361542 -1.01621
0.0868955 -0.361526 -1.00776
0.0859629 -0.36221 -1.00181
0.0917577 -0.371886 -0.95999
0.014783 -0.371875 -1.04992
0.0639824 -0.362525 -1.02889
0.087816 -0.355974 -1.00312
0.0830124 -0.378326 -0.92426
0.0822028 -0.381403 -0.91004
0.0761988 -0.382299 -0.904562
-0.0364178 -0.385582 -1.03342
-0.00501761 -0.375297 -1.04401
0.0484194 -0.363749 -1.03927
0.0664289 -0.355159 -1.02776
0.0914611 -0.36012 -0.986776
0.0916182 -0.361163 -0.982078
0.0658565 -0.385199 -0.896579
-0.045849 -0.387431 -1.02364
-0.0413142 -0.385933 -1.02456
-0.0155664 -0.376543 -1.03579
0.00704507 -0.370766 -1.04349
0.0113955 -0.367977 -1.03976
0.0423426 -0.361855 -1.03819
0.0892532 -0.348601 -1.0184
0.0937037 -0.348701 -1.01565
0.0912742 -0.352952 -1.01093
-0.13105 -0.490203 -1.01653
0.0931771 -0.388061 -1.04021
0.0934187 -0.360509 -0.972887
0.0730403 -0.374416 -0.922102
0.0762205 -0.377155 -0.91857
-0.0496047 -0.389074 -1.02107
0.0766294 -0.352248 -1.02447
0.0846864 -0.352333 -1.01881
0.0976817 -0.344497 -1.01794
0.0949498 -0.350553 -1.00112
0.095993 -0.358361 -0.965046
-0.0562924 -0.38991 -1.01197
-0.0434624 -0.384287 -1.01639
-0.0300481 -0.380224 -1.02645
-0.0204664 -0.376204 -1.02873
-0.000268212 -0.371089 -1.03694
0.00233315 -0.367724 -1.03113
0.0211496 -0.361592 -1.034
0.0900459 -0.380164 -1.02307
0.0763369 -0.346419 -1.02926
0.100414 -0.348048 -0.995393
0.11354 -0.384658 -1.00642
0.087815 -0.362608 -0.951871
0.0718587 -0.372477 -0.923505
0.048225 -0.384607 -0.894016
0.0270744 -0.36182 -1.03662
0.0517764 -0.352659 -1.04069
0.062431 -0.349938 -1.03753
0.096155 -0.35226 -0.987493
0.0981132 -0.352453 -0.973603
0.0938494 -0.355912 -0.953459
0.0764356 -0.370898 -0.931818
-0.055054 -0.386205 -1.00377
-0.0368821 -0.380832 -1.01651
-0.017493 -0.373578 -1.02409
0.0698767 -0.345057 -1.03535
0.102651 -0.339037 -1.0222
0.107509 -0.337705 -1.01535
0.0992572 -0.350228 -0.97939
0.0912843 -0.357515 -0.947607
-0.0279209 -0.374406 -1.01396
0.0145132 -0.362141 -1.03532
0.0200818 -0.35599 -1.03536
0.0490359 -0.346756 -1.04455
0.077943 -0.340019 -1.03897
0.105014 -0.343132 -0.994272
0.0942576 -0.353601 -0.946939
0.00599204 -0.361881 -1.03162
0.108509 -0.339339 -1.00126
0.110866 -0.33717 -0.993766
0.103846 -0.347697 -0.958145
0.0983697 -0.351576 -0.952671
-0.00416177 -0.363944 -1.02649
0.0355258 -0.351333 -1.04068
0.0618642 -0.338114 -1.05018
0.0783396 -0.335508 -1.04346
0.109635 -0.333462 -1.00899
0.109408 -0.339332 -0.986817
0.109736 -0.343311 -0.96072
0.102956 -0.346659 -0.946991
0.0897898 -0.353371 -0.93226
-0.00280295 -0.356384 -1.02967
0.0214004 -0.349263 -1.04009
0.109596 -0.3412 -0.972767
-0.0121532 -0.35793 -1.02515
0.0135738 -0.35281 -1.03682
0.0725212 -0.333477 -1.04862
0.0761576 -0.328685 -1.05009
0.0896429 -0.332039 -1.03696
0.0587914 -0.388961 -1.07827
0.11136 -0.33067 -1.0091
0.0136845 -0.345644 -1.04143
0.0556916 -0.33431 -1.05317
0.111898 -0.331309 -1.00196
0.0648281 -0.331199 -1.05416
0.112695 -0.330361 -0.992928
0.123633 -0.329163 -0.965512
0.112738 -0.321925 -1.02306
0.0190216 -0.342418 -1.04407
0.0985164 -0.317458 -1.03893
0.107463 -0.322106 -1.02601
0.111786 -0.321809 -1.01672
0.114345 -0.324703 -0.986222
0.0208293 -0.335095 -1.04869
0.0853447 -0.321928 -1.04568
0.0920398 -0.322339 -1.03909
0.119723 -0.329336 -0.961049
0.100957 -0.336498 -0.937313
0.089324 -0.341327 -0.92391
0.00775353 -0.34214 -1.04325
0.0368474 -0.332571 -1.05287
0.0709297 -0.319291 -1.05642
0.0586588 -0.384942 -1.07375
0.0728257 -0.323128 -1.05131
-0.033508 -0.387497 -1.04299
0.0765694 -0.322346 -1.05135
0.114255 -0.320999 -1.00798
0.114369 -0.329137 -0.953301
0.0941483 -0.338755 -0.930106
0.0571972 -0.321443 -1.05439
0.117273 -0.318603 -0.986797
-0.00295484 -0.337268 -1.04247
0.0222078 -0.330566 -1.05178
0.0283074 -0.331303 -1.0516
0.0569272 -0.322556 -1.0562
0.0713538 -0.315579 -1.05576
0.12418 -0.319081 -0.965613
0.101684 -0.33115 -0.935832
0.114175 -0.31129 -1.02241
0.117603 -0.320427 -0.98096
0.00486461 -0.333455 -1.0469
-0.0118714 -0.379757 -1.05066
0.102638 -0.310017 -1.03496
0.109247 -0.311371 -1.02785
0.113496 -0.312135 -1.01805
0.118804 -0.321825 -0.965838
0.0973298 -0.329907 -0.929434
0.0632758 -0.315156 -1.05344
0.0573688 -0.354659 -1.03557
0.115976 -0.310953 -1.0089
0.120484 -0.319136 -0.960486
0.041904 -0.321123 -1.05274
0.0991185 -0.325378 -0.931287
-0.0040074 -0.332066 -1.04494
0.0217566 -0.320627 -1.05251
0.109627 -0.302315 -1.02342
0.117973 -0.309773 -0.987058
0.0898302 -0.328999 -0.920041
0.0651138 -0.307061 -1.05017
0.118478 -0.311012 -0.981063
0.0193029 -0.316537 -1.05391
0.0153542 -0.323756 -1.05031
0.0977083 -0.301806 -1.04105
0.110626 -0.301616 -1.03001
0.11477 -0.301484 -1.02233
0.114356 -0.302721 -1.01764
0.121112 -0.310595 -0.971581
0.124076 -0.308952 -0.965667
0.0510737 -0.308323 -1.04587
-0.0218553 -0.342174 -1.03362
0.0561581 -0.311719 -1.04908
0.0788924 -0.303429 -1.05198
0.0866513 -0.302564 -1.04864
0.099689 -0.301103 -1.03603
0.121626 -0.311008 -0.959199
0.11934 -0.298843 -1.00163
0.118081 -0.309023 -0.952303
0.0693657 -0.30266 -1.04875
0.120269 -0.300706 -0.985998
0.0149372 -0.314009 -1.04831
0.0584379 -0.303966 -1.04623
0.061374 -0.30063 -1.0447
0.11591 -0.293222 -1.02147
0.118114 -0.302516 -0.951101
-0.00398597 -0.393019 -1.08234
0.10233 -0.309882 -0.932508
0.027199 -0.306232 -1.04504
0.0549965 -0.299242 -1.04064
0.103355 -0.291983 -1.03564
0.122005 -0.300854 -0.972727
0.123306 -0.301274 -0.959582
0.0999981 -0.289528 -1.03445
0.097742 -0.374294 -0.967256
0.122644 -0.29695 -0.952109
0.0786983 -0.29316 -1.051
0.117771 -0.290463 -1.00913
0.123588 -0.289828 -0.980161
0.0821474 -0.370207 -0.946136
0.117017 -0.300818 -0.947827
0.0628477 -0.293922 -1.04575
0.101233 -0.284733 -1.03403
0.118906 -0.290753 -0.994685
-0.012934 -0.311698 -1.03775
0.0206905 -0.303417 -1.04226
0.113418 -0.284471 -1.01932
0.122709 -0.290378 -0.987448
0.0487577 -0.294892 -1.0443
0.116917 -0.280132 -1.02326
0.123417 -0.290771 -0.974379
0.105752 -0.298238 -0.932637
-0.0195199 -0.309004 -1.03319
0.0555452 -0.290774 -1.04752
0.0911904 -0.283622 -1.04079
0.102939 -0.279717 -1.03658
0.12412 -0.2921 -0.957381
0.122225 -0.289193 -0.952001
0.00805214 -0.303378 -1.04258
0.0127287 -0.29693 -1.04208
-0.00731249 -0.302969 -1.04062
-0.000831223 -0.30355 -1.04039
0.0966695 -0.279973 -1.04252
0.0780381 -0.282222 -1.05172
0.0831461 -0.282635 -1.04657
0.121677 -0.278941 -1.00065
0.0719848 -0.277359 -1.05359
0.113674 -0.274277 -1.03354
0.114238 -0.267616 -1.04328
0.123507 -0.269358 -1.03063
0.120857 -0.273813 -1.02475
0.128177 -0.268112 -1.02112
0.125321 -0.279437 -0.980599
0.124835 -0.281275 -0.974471
0.10717 -0.291991 -0.930685
0.0563165 -0.283396 -1.05091
0.104915 -0.272649 -1.03958
0.0969046 -0.385367 -0.910285
0.124604 -0.271 -1.01746
0.118221 -0.282759 -0.939213
-0.0399778 -0.30108 -1.03862
-0.0297016 -0.300167 -1.04015
0.0497807 -0.281368 -1.05406
0.0575149 -0.275545 -1.05504
0.0853152 -0.270202 -1.05823
0.0899852 -0.271409 -1.05199
0.125059 -0.271231 -1.0028
0.129055 -0.27522 -0.958935
0.124561 -0.28016 -0.952714
-0.029852 -0.295702 -1.04538
0.0789764 -0.272871 -1.05657
0.120808 -0.264136 -1.0396
0.127994 -0.263906 -1.03189
0.0795835 -0.377169 -0.930175
0.128165 -0.265927 -1.0044
0.0347309 -0.281957 -1.05521
0.0730442 -0.270417 -1.05901
0.0999586 -0.265114 -1.05106
0.120215 -0.279784 -0.943274
-0.0210089 -0.293193 -1.04833
0.0645449 -0.272645 -1.05743
0.0656614 -0.267593 -1.06109
0.0944214 -0.26463 -1.05519
0.118415 -0.2588 -1.04782
0.124638 -0.259322 -1.04227
0.134745 -0.257952 -1.02903
0.130116 -0.263274 -1.01638
-0.0526797 -0.296781 -1.03656
0.115929 -0.383302 -0.978563
-0.0340947 -0.293896 -1.04573
0.0500142 -0.273852 -1.05815
0.0560511 -0.270323 -1.05938
0.106082 -0.261886 -1.05193
0.133317 -0.258083 -1.01542
0.0695907 -0.339445 -1.0443
0.129397 -0.271031 -0.966061
0.126468 -0.271196 -0.945224
-0.0253528 -0.286209 -1.05261
0.0511336 -0.267308 -1.06257
0.0913139 -0.260313 -1.06603
0.108508 -0.256442 -1.05592
0.13235 -0.260765 -1.00897
0.1324 -0.259615 -1.00195
0.131876 -0.269194 -0.959378
0.129843 -0.270217 -0.951205
0.0304145 -0.270385 -1.06467
0.0726291 -0.263284 -1.06384
0.0132437 -0.290909 -1.0498
0.0881256 -0.255177 -1.066
0.132657 -0.248961 -1.04765
0.138103 -0.249297 -1.04196
0.134224 -0.253391 -1.03783
0.141339 -0.247982 -1.03691
0.130459 -0.262851 -0.979501
0.131292 -0.267652 -0.945848
0.117577 -0.271215 -0.924956
-0.0204083 -0.280571 -1.05681
0.00761424 -0.274774 -1.06202
0.0216443 -0.274723 -1.0609
0.0650852 -0.260643 -1.06648
0.00657096 -0.293861 -1.04822
0.0924356 -0.255061 -1.06897
0.113549 -0.251365 -1.05962
0.136549 -0.253061 -1.02161
0.135956 -0.254926 -0.995671
-0.00701405 -0.371183 -1.03152
0.13453 -0.259278 -0.987861
0.138596 -0.256937 -0.979621
0.127343 -0.268438 -0.941227
0.0933634 -0.301896 -1.04232
0.121481 -0.270509 -0.931152
0.0568206 -0.262689 -1.06538
0.100604 -0.249656 -1.07349
0.12241 -0.24656 -1.05722
0.138607 -0.251438 -1.02979
0.140847 -0.249907 -1.02218
0.136207 -0.261578 -0.960067
0.116917 -0.268647 -0.919671
0.0425532 -0.26414 -1.06535
0.114775 -0.246285 -1.06296
0.139227 -0.250396 -1.01527
0.138566 -0.25757 -0.964715
0.0966838 -0.312434 -1.04115
0.131496 -0.261126 -0.936605
0.0351122 -0.261061 -1.06913
0.113446 -0.285219 -0.999569
0.0436924 -0.257498 -1.07136
0.086402 -0.249635 -1.07497
0.109677 -0.245263 -1.07008
0.138793 -0.257924 -0.953332
0.107039 -0.269481 -0.905097
-0.0238716 -0.272828 -1.05578
0.0161121 -0.265656 -1.0677
0.0303087 -0.264588 -1.06737
0.101815 -0.24541 -1.07638
0.113094 -0.241147 -1.07264
0.137398 -0.237681 -1.05769
0.141435 -0.242144 -1.04481
0.142235 -0.24529 -1.00162
0.141351 -0.248883 -0.994676
0.13858 -0.252323 -0.987951
0.0939974 -0.312171 -1.04061
0.133891 -0.260056 -0.943024
0.107592 -0.278561 -0.914937
0.121253 -0.262593 -0.919387
0.0855596 -0.377517 -0.93797
-0.0058523 -0.265667 -1.06569
0.0230903 -0.260353 -1.07265
0.0655714 -0.253106 -1.07211
0.102631 -0.239509 -1.08473
0.107437 -0.24061 -1.07955
0.120135 -0.241837 -1.06575
0.145308 -0.240512 -1.03624
0.146271 -0.247442 -0.971755
0.135778 -0.255152 -0.936382
0.03552 -0.25647 -1.07251
0.113181 -0.336815 -0.979776
0.0516878 -0.254592 -1.07289
0.0577601 -0.250684 -1.0759
0.14386 -0.235831 -1.04699
0.143309 -0.242879 -1.01696
0.143204 -0.250362 -0.967447
0.130981 -0.25889 -0.932672
0.121695 -0.235952 -1.07048
0.144925 -0.240461 -1.022
0.147663 -0.237031 -1.01614
0.126686 -0.258344 -0.924156
-0.0212876 -0.265753 -1.05754
0.102491 -0.285017 -0.914568
-0.0145342 -0.264849 -1.05995
0.00873049 -0.25633 -1.07351
0.0348961 -0.249401 -1.08319
0.0906079 -0.369479 -0.980281
0.0509368 -0.247398 -1.07849
0.0616116 -0.386016 -0.893823
0.142811 -0.229025 -1.06614
0.144285 -0.228979 -1.06445
0.144833 -0.241118 -1.00841
