ply
format ascii 1.0
comment Created by Open3D
element vertex 1891
property double x
property double y
property double z
end_header
-1.44426 0.353959 -3.572
-1.41363 0.353523 -3.5745
-1.40385 0.353483 -3.577
-1.3917 0.352844 -3.5715
-0.892338 1.55011 -3.589
-1.36524 0.35262 -3.574
-0.0729185 -0.418605 -1.4012
-1.31168 0.351121 -3.569
1.75555 -0.0956604 -3.649
0.237622 0.772583 -3.588
0.488499 0.110538 -1.821
-1.2913 0.350776 -3.57
-1.2825 0.35011 -3.565
0.22607 1.16542 -3.598
-1.26632 0.349151 -3.557
0.0883171 0.775096 -3.618
-1.25831 0.348685 -3.554
-1.11265 0.343753 -3.57167
-0.127633 -0.411163 -1.046
-0.412885 -0.40712 -1.354
-1.02196 0.343668 -3.57425
-1.00639 0.34372 -3.578
-1.0008 0.343959 -3.5805
-0.982729 0.347399 -3.587
-0.802719 0.602339 -3.59
-0.135047 0.0978339 -1.826
-0.973978 0.343383 -3.578
0.927 0.332299 -3.615
-0.964735 0.343449 -3.58075
0.676911 -0.407977 -1.374
-0.245719 0.11627 -1.812
0.306113 -0.406273 -1.13173
1.61805 -0.604863 -3.636
-1.93455 1.28214 -3.507
-0.952732 0.343654 -3.58425
-0.933924 0.346823 -3.5875
-0.893531 0.34266 -3.58225
-0.883091 0.34226 -3.5795
0.0426443 -0.453326 -1.5115
-0.87281 0.345044 -3.5765
1.14172 0.313329 -3.608
1.39358 0.0677176 -2.825
-0.86315 0.344936 -3.576
-0.340355 -0.430435 -1.094
-0.348494 -0.433207 -1.748
0.411696 -0.0547318 -1.862
-0.822142 0.344792 -3.58
-0.336267 0.0531662 -1.9035
-0.803666 0.344915 -3.5845
0.379048 0.0744971 -2.675
-0.369761 0.0880093 -1.868
-1.79295 0.150787 -3.56
-0.789044 0.34536 -3.59
-0.374388 0.084577 -1.8725
-0.782624 0.345291 -3.591
-0.774081 0.343117 -3.59067
-1.12323 1.45415 -3.59175
-1.36868 1.50307 -3.573
-1.35166 0.275036 -3.57
-0.740001 0.342951 -3.57
2.21522 1.68246 -3.716
-0.733131 0.342648 -3.569
-0.724316 0.342888 -3.5715
-0.71457 0.342688 -3.571
-1.99029 1.58421 -3.519
-0.705338 0.342732 -3.5725
-1.43142 0.453498 -3.57
-0.681848 0.341863 -3.566
1.13887 -0.0952338 -3.627
-0.424673 0.337056 -3.5365
-0.410733 0.335095 -3.549
-1.53196 0.975105 -3.58267
-1.543 1.58495 -3.582
-0.0642458 0.344552 -3.564
-0.390265 0.33638 -3.532
0.304781 -0.411608 -1.01075
0.296521 0.25435 -3.546
-0.286052 0.336154 -3.55667
1.58561 0.126522 -2.73633
-0.275855 0.338231 -3.557
-0.254767 0.335665 -3.564
-0.222883 0.334429 -3.56233
-0.317855 0.0556345 -2.457
-0.214603 0.335309 -3.562
-0.178578 0.339899 -3.578
-0.121804 -0.00538595 -3.551
-0.153832 0.339709 -3.576
0.614823 -0.411921 -1.1735
-0.967609 0.269309 -3.558
1.53114 0.201437 -2.697
-1.24776 0.225438 -3.51
-0.754888 -0.404419 -1.2605
0.997129 1.33336 -3.652
-0.073432 0.335249 -3.563
-1.53726 0.96364 -3.586
-1.54503 1.59379 -3.584
-0.0642337 0.335274 -3.56375
-0.141894 -0.0331413 -1.85475
-0.0427277 0.335064 -3.562
1.01824 -0.414387 -1.73157
1.86006 1.34635 -3.634
-0.0335285 0.335064 -3.562
-0.0243532 0.335394 -3.5655
-1.48346 1.5419 -3.5765
-1.46396 0.552417 -3.5735
-0.0151286 0.335019 -3.562
1.36504 1.47366 -3.628
0.00633283 0.334974 -3.562
0.586132 0.792786 -3.6155
0.606078 0.562765 -3.60967
0.0278123 0.335206 -3.5635
0.1667 0.339994 -3.579
2.16559 1.29199 -3.689
0.172867 0.339994 -3.579
0.285944 0.335726 -3.563
0.326164 0.339092 -3.564
-1.00422 0.593449 -3.5865
-0.995331 0.296976 -3.587
-0.443875 -0.414196 -1.083
0.508389 0.345909 -3.625
0.537181 0.344258 -3.604
0.555759 0.344162 -3.603
1.06188 -0.0628468 -3.617
1.05642 0.602663 -3.616
-0.652568 1.26491 -3.5935
-0.639799 0.63467 -3.592
0.565468 0.343144 -3.6235
0.584024 0.342975 -3.6195
0.26519 0.633783 -3.594
0.664948 0.344247 -3.62625
0.686767 0.344129 -3.6225
-1.63295 -0.0358594 -3.339
0.0370923 0.308237 -3.572
-0.574016 -0.404492 -1.3564
-1.33052 0.152876 -3.554
0.696075 0.34406 -3.621
-0.510909 -0.422179 -1.822
0.755239 0.344624 -3.63133
1.94626 1.59512 -3.641
0.78718 0.345351 -3.6245
0.808239 0.348053 -3.618
0.836552 0.344857 -3.613
0.0573187 -0.152248 -1.84667
1.12832 0.353398 -3.628
0.431555 -0.12282 -2.369
1.13749 0.35326 -3.625
1.15256 0.35297 -3.618
1.19352 0.353727 -3.62
-1.72185 1.21263 -3.5705
1.1995 0.353597 -3.617
0.557316 0.833506 -3.6105
1.79322 0.0141177 -3.651
-1.91464 1.61312 -3.59
1.21591 0.354642 -3.626
-0.313005 -0.289131 -2.271
1.29713 -0.276781 -3.626
1.28706 0.352414 -3.624
1.30731 -0.257517 -3.6265
1.29644 0.352334 -3.6205
1.30127 0.355118 -3.616
1.33041 -0.144577 -3.627
0.625782 1.28455 -3.603
1.31875 0.356359 -3.625
-0.380265 -0.410925 -1.0025
-0.0282378 -0.165009 -1.8295
1.33814 -0.296652 -3.625
-1.5461 1.54761 -3.579
1.32623 0.353903 -3.621
-1.4408 -0.172037 -3.297
1.33651 0.352699 -3.616
1.34461 0.351488 -3.614
1.36535 -0.245173 -3.624
1.35726 0.357139 -3.6255
1.38105 -0.274846 -3.6275
-1.92576 1.32448 -3.117
1.36712 0.353938 -3.624
1.38667 0.353968 -3.6205
1.51836 0.35924 -3.614
0.236759 0.896768 -3.6075
1.71284 0.302709 -3.6
0.86496 1.34057 -3.599
1.56049 0.35519 -3.5965
1.5664 0.358306 -3.593
1.14572 1.4817 -3.65
1.57814 0.358021 -3.588
-0.673498 1.30346 -3.594
-0.66326 0.673855 -3.594
0.38625 0.10202 -1.825
1.58487 0.355164 -3.554
1.60711 0.351977 -3.56233
1.64054 0.35606 -3.552
-0.350065 0.314219 -3.561
1.67547 0.355252 -3.535
0.135391 0.793237 -3.6125
1.40068 0.275777 -2.718
0.846372 0.723542 -3.5975
1.45018 0.27856 -2.735
0.765637 1.3096 -3.64
1.47461 0.279359 -2.739
1.47676 0.275805 -2.7265
-0.112872 -0.168501 -1.8628
1.48252 0.278941 -2.732
1.49713 0.275841 -2.7215
1.72324 1.5939 -3.621
1.49942 0.277387 -2.71
1.50961 0.276346 -2.714
0.514619 0.755242 -3.6115
1.56641 0.27389 -2.69425
-0.664132 -0.40434 -1.1654
1.59219 0.277772 -2.688
-1.22283 0.245423 -3.534
-1.9667 0.329651 -3.238
-0.723967 0.381669 -3.583
-1.97111 0.332487 -3.305
-1.96477 0.332462 -3.306
0.297459 -0.40607 -1.12425
0.296807 -0.421003 -1.749
-0.233426 0.342052 -3.5665
-1.96636 0.343418 -3.396
-0.222728 -0.407618 -1.15222
1.51189 0.907933 -2.755
-0.684981 0.686145 -3.588
-1.97188 0.342859 -3.424
-0.223936 -0.407255 -1.1635
-1.97178 0.3466 -3.43
-1.5636 -0.185807 -3.304
1.44732 0.690924 -2.761
-1.97083 0.353318 -3.508
-1.55267 -0.0659055 -3.334
-0.239861 1.03716 -3.593
-1.96191 0.352887 -3.505
-0.967982 1.4797 -3.581
-0.940348 0.254767 -3.579
-1.94984 0.35544 -3.538
0.467218 0.0234199 -1.88356
-0.263604 -0.411789 -0.9598
0.326074 -0.410554 -2.267
-1.31523 0.335289 -3.57
-0.77907 0.572809 -3.589
-1.9244 0.353513 -3.5605
-0.124136 0.0877962 -3.619
-1.90341 0.353288 -3.5645
-1.89669 0.353262 -3.5655
1.38329 -0.00573301 -3.639
1.36437 1.25184 -3.64167
-1.79239 0.355465 -3.579
-0.122215 -0.413157 -1.1638
-0.812314 1.24574 -3.59
-0.801709 0.613918 -3.58933
-1.78114 0.354533 -3.572
-1.72821 0.353086 -3.568
-1.5346 0.34432 -3.56533
-1.52237 0.344469 -3.57
-1.47138 0.344664 -3.5715
1.62771 -0.630905 -3.567
-1.46266 0.34488 -3.57525
-1.9653 0.313944 -3.3075
-1.43117 0.342683 -3.57
-1.3806 0.342865 -3.5695
-1.35382 0.342561 -3.572
-1.33885 0.345188 -3.568
-1.293 0.344016 -3.565
-0.0235045 -0.40438 -0.962556
-1.26419 0.342238 -3.551
0.687887 1.51478 -3.6295
-1.24001 0.339083 -3.52
-1.22768 0.339138 -3.524
-1.22592 0.340389 -3.537
-1.67449 0.234517 -3.568
-1.81134 -0.266847 -3.278
-1.21221 0.342736 -3.5665
-1.70785 1.06451 -3.58
-1.69485 0.452494 -3.586
1.5577 0.583922 -3.59633
-1.20294 0.342799 -3.568
-0.979442 0.339955 -3.575
1.53849 0.181791 -3.585
-1.94211 1.28428 -3.48233
0.305963 0.587475 -3.6
-0.94349 0.340578 -3.587
-0.934586 0.339629 -3.577
-0.930909 0.340579 -3.589
-0.921784 0.339535 -3.578
1.52181 -0.340386 -3.642
-0.871898 0.336748 -3.57767
1.4836 0.15696 -3.624
1.14666 0.343514 -3.622
-0.109432 -0.408514 -1.523
1.48991 0.225268 -3.6205
1.39866 0.0728759 -2.823
-0.863409 0.33565 -3.578
-0.853512 0.335448 -3.57725
0.186445 -0.288106 -2.319
-0.824808 0.338347 -3.578
-0.821871 0.335298 -3.58
-0.802895 0.335207 -3.5815
-0.794311 0.335539 -3.5855
0.896311 0.534765 -3.618
-0.371428 0.0515325 -1.88
-0.788118 0.335567 -3.5875
-1.25274 0.232604 -3.524
-0.769737 0.335736 -3.591
-0.0640728 0.288514 -3.558
-0.75435 0.333088 -3.5635
-0.742166 0.333194 -3.566
1.73751 1.03943 -3.662
-0.72375 0.333295 -3.5695
-0.712829 0.334554 -3.57267
-0.675174 0.332325 -3.5635
-0.657785 0.332933 -3.572
-1.83385 -0.0851827 -3.31
-0.647941 0.334163 -3.554
0.368477 0.0782665 -2.367
-0.420139 0.329782 -3.525
-0.415574 0.330998 -3.538
-0.405658 0.332896 -3.56
-0.389271 0.329436 -3.523
-0.3445 0.333221 -3.567
0.194521 -0.172058 -3.5875
0.467915 0.434055 -3.6245
-0.330885 0.331913 -3.553
-0.233263 0.332594 -3.564
0.695021 -0.417178 -1.24225
0.679209 1.05802 -3.611
-0.194316 0.334292 -3.584
-0.181763 0.333919 -3.58
-0.16297 0.333329 -3.5745
-0.129307 0.333857 -3.581
-0.113985 0.334137 -3.584
-0.104726 0.334137 -3.584
0.0431922 0.332466 -3.568
1.50386 0.242875 -2.719
-0.322802 0.344413 -3.57667
0.0558483 0.334702 -3.592
-0.420152 -0.364809 -1.78925
-1.04259 1.066 -3.5105
0.0867122 0.33451 -3.588
0.447172 0.020042 -1.878
0.11728 0.333577 -3.578
0.126505 0.333531 -3.5775
0.248023 0.0503072 -3.603
-0.351388 0.110739 -1.815
0.179033 0.333825 -3.579
0.19157 -0.280656 -2.358
1.67592 1.59409 -3.659
0.1852 0.333825 -3.579
-0.931913 0.642373 -3.5825
0.191153 0.333452 -3.575
0.197257 0.333359 -3.574
0.215671 0.333266 -3.573
0.423416 -0.112143 -2.4065
0.225152 0.33363 -3.576
0.237369 0.33348 -3.5735
0.246231 0.332967 -3.568
0.264312 0.3325 -3.563
-0.385783 1.36504 -3.596
0.272656 0.335207 -3.592
0.285093 0.335269 -3.591
-1.65254 -0.70661 -3.1245
0.304548 0.332842 -3.565
0.337338 -0.422359 -1.427
0.32653 0.333314 -3.568
-0.663126 0.370066 -3.599
0.209172 0.0345355 -3.576
-0.29984 -0.411112 -1.268
0.356279 0.335235 -3.587
-0.33133 1.09285 -3.58967
-0.32237 0.44441 -3.5895
0.708666 0.614233 -3.62767
0.365466 0.335142 -3.586
1.14744 -0.2441 -3.615
0.415133 0.332157 -3.5835
0.4246 0.332296 -3.585
-0.319548 -0.408756 -1.964
0.454521 0.33331 -3.583
-0.455541 -0.423659 -1.7172
-0.328765 -0.00638505 -1.959
0.466683 0.333148 -3.58
0.645487 0.339146 -3.607
0.711578 0.340795 -3.619
0.856903 0.343532 -3.631
-0.604168 0.902849 -3.596
2.26652 1.59349 -3.691
0.863452 0.343613 -3.63
0.0588088 -0.317052 -1.83217
-1.00705 0.0946082 -3.565
1.24739 0.184986 -3.6445
-1.37359 0.233508 -3.56575
0.86932 0.343424 -3.628
-1.97616 1.35107 -3.352
-1.95842 1.2833 -3.358
-1.93589 0.021581 -3.356
0.875877 0.343507 -3.627
0.884906 0.343318 -3.625
-1.04443 0.208473 -3.579
-1.47241 1.34781 -3.577
0.906652 0.343147 -3.62
-0.734996 0.993554 -3.448
0.976672 0.344368 -3.6235
1.0431 0.344248 -3.613
1.04807 0.343791 -3.606
1.05368 0.343551 -3.602
0.346086 -0.413479 -0.966667
0.456612 0.624167 -3.6205
1.08199 0.344483 -3.608
1.09597 0.342686 -3.6215
1.1223 -0.279864 -3.611
1.11538 0.341368 -3.61533
1.19983 0.347278 -3.618
1.22644 -0.284456 -3.626
1.21658 0.3484 -3.628
1.26085 0.348184 -3.618
1.31441 0.345519 -3.614
-0.380124 -0.410479 -0.991
1.32864 0.349098 -3.614
0.00647181 -0.144504 -1.85017
1.0105 0.373406 -3.589
1.35578 0.349444 -3.612
1.48424 0.349294 -3.584
1.5515 0.35285 -3.609
1.44065 0.314062 -2.738
1.56659 0.35112 -3.586
0.281946 -0.409047 -1.534
1.59359 0.345029 -3.511
-0.392561 0.0831582 -1.86583
0.40574 -0.413684 -1.363
1.33757 -0.0855487 -3.63533
1.31545 1.26327 -3.629
1.32537 0.540091 -3.631
1.63569 0.345345 -3.5415
1.40746 0.270155 -2.709
1.44248 0.272387 -2.754
0.123625 1.24169 -3.59967
0.137317 0.611697 -3.599
1.43898 0.271866 -2.7205
1.5044 0.273259 -2.719
1.50941 0.271436 -2.696
1.59278 0.272834 -2.689
-1.96233 0.323813 -3.2775
-1.96726 0.333993 -3.36
-1.96462 0.333604 -3.393
-1.9616 0.337344 -3.4
-0.225135 -0.406875 -1.18417
0.287362 -0.423753 -1.748
-1.97108 0.342298 -3.455
-0.225776 -0.409864 -1.133
-1.97303 0.344891 -3.485
0.294545 -0.408903 -1.09325
1.63218 1.04082 -3.561
-0.242995 1.04338 -3.5905
-1.96398 0.344443 -3.483
-0.0519523 0.304543 -3.56475
-0.274941 -0.404414 -2.259
-1.95847 0.344614 -3.486
-1.95576 0.34528 -3.494
0.899412 -0.695851 -2.687
-0.978572 1.2826 -3.557
-1.94677 0.342731 -3.505
-1.93613 0.344316 -3.5275
0.337247 -0.407246 -1.1914
1.6026 0.403928 -2.76
-1.93265 0.345449 -3.541
-1.8834 0.349946 -3.569
-1.81293 0.345149 -3.57
-0.416192 -0.412158 -0.972
1.64953 1.25332 -3.617
-1.7848 0.345663 -3.571
-1.70399 0.346941 -3.58
-1.68884 0.34325 -3.579
0.116825 -0.41599 -1.3324
-1.63437 0.344653 -3.571
1.60399 -0.275377 -3.634
1.58813 1.07421 -3.63
-1.56328 0.343286 -3.572
0.606198 1.49645 -3.646
-1.55328 0.342506 -3.566
-1.27358 0.354221 -3.56433
-1.54814 0.342794 -3.569
-1.74118 0.924737 -3.5755
-1.73506 0.294422 -3.571
-1.51447 0.342475 -3.573
0.197774 -0.409051 -1.29575
0.466612 -0.127157 -2.293
-1.50462 0.341702 -3.567
-1.38641 0.339525 -3.568
-1.3359 0.33568 -3.5705
-1.26169 0.335252 -3.544
-1.22384 0.331832 -3.513
1.52623 0.00314102 -2.744
1.5207 0.66573 -2.748
-1.21973 0.334127 -3.539
-1.42869 0.673399 -3.58
-1.21977 0.335869 -3.56
-0.862899 -0.196336 -3.486
0.444579 0.0657455 -1.854
-1.21187 0.333908 -3.56267
-1.114 0.332268 -3.57275
-1.07453 0.334931 -3.574
-0.254734 0.0345179 -3.5725
-1.0622 0.335013 -3.5775
-1.03298 0.331214 -3.58667
-1.0225 0.334406 -3.5765
1.67106 -0.69129 -3.561
0.495239 1.28374 -3.602
-0.979442 0.333673 -3.575
0.314131 -0.433329 -2.14
-1.93865 1.31162 -3.509
-1.93321 0.643266 -3.515
-1.69438 0.631521 -3.586
-0.940596 0.33326 -3.576
-0.921784 0.333261 -3.578
-0.914755 0.332985 -3.577
-0.892717 0.331782 -3.566
-0.890225 0.333187 -3.583
-0.883214 0.332908 -3.58
-1.02369 0.142118 -3.576
-0.769298 0.329734 -3.56
-0.734622 1.42212 -3.5975
-0.666822 0.328166 -3.554
1.68053 -0.257307 -3.642
-0.792507 0.354907 -3.5915
-0.420139 0.323688 -3.525
-0.414165 0.32378 -3.526
-0.404633 0.32285 -3.551
-0.483034 1.06295 -3.599
-0.362616 0.323672 -3.562
1.1651 0.832159 -3.66
-0.333147 0.321901 -3.55533
-0.254837 0.323467 -3.565
-0.242484 0.32338 -3.5645
-1.57568 1.02312 -3.583
-0.233211 0.323303 -3.565
-0.225001 0.324296 -3.56467
-0.753761 0.972602 -3.451
-0.214482 0.32285 -3.56
-0.208349 0.32285 -3.56
-0.202072 0.322623 -3.5575
0.690211 0.425009 -3.637
-0.197238 0.32784 -3.581
-0.181711 0.327657 -3.579
-0.161957 0.325146 -3.57567
-1.13315 1.05373 -3.583
-1.12065 0.402991 -3.58
-0.113968 0.327916 -3.5835
-0.104056 0.322795 -3.562
-1.19842 -0.681668 -2.738
-0.0938512 0.321833 -3.563
-1.90131 -0.206162 -3.3135
-0.0733719 0.322708 -3.562
-0.0641752 0.322708 -3.562
-1.67357 0.663934 -3.586
-0.0427222 0.32275 -3.5625
-0.0243433 0.322977 -3.565
-1.48256 1.53426 -3.575
-1.46376 0.542663 -3.573
-0.0151304 0.322798 -3.563
-0.00388522 0.323608 -3.56067
1.40436 0.0524217 -2.6825
-1.5914 -0.734803 -3.104
0.0155164 0.325499 -3.559
0.0369729 0.322573 -3.5605
0.0451881 0.321867 -3.564
-0.7442 0.913204 -3.444
0.117313 0.324422 -3.579
0.127526 0.325299 -3.57733
-0.431884 -0.411381 -0.943
-0.435211 -0.40983 -1.5745
0.503551 -0.289205 -1.781
-1.74474 0.265961 -3.567
0.135653 0.32406 -3.575
-1.35309 -0.577759 -3.298
0.156277 0.325298 -3.57733
0.186113 -0.287406 -2.35767
-0.48494 0.99673 -3.5995
0.175963 0.324596 -3.5805
-0.32681 0.105146 -1.83
0.332747 0.804111 -3.596
0.189311 0.325601 -3.579
-1.46443 -0.525538 -3.286
0.197312 0.32421 -3.575
1.54329 0.264449 -3.56
0.215731 0.327199 -3.574
0.426018 -0.148414 -2.384
0.225141 0.324369 -3.57675
0.395586 0.0365237 -1.981
1.52956 -0.0320584 -3.65
0.256242 0.32446 -3.56467
0.277149 -0.307875 -2.251
0.267327 0.323215 -3.56225
0.235935 0.0906661 -1.841
-1.92984 1.22326 -3.128
0.295366 0.323661 -3.5655
0.304783 0.323865 -3.56775
-1.16309 0.0916226 -3.421
0.335754 -0.417139 -1.39967
0.326302 0.323848 -3.5655
0.196372 -0.416235 -1.34275
0.346989 0.322988 -3.56733
-0.401201 -0.0765725 -2.341
-0.332436 1.08456 -3.5925
-0.322577 0.454009 -3.59
-0.964301 0.296154 -3.5805
0.364957 0.32849 -3.581
-0.400371 -0.077194 -2.36
0.367256 0.322767 -3.56333
1.06217 -0.0565031 -3.618
1.05639 0.593036 -3.6175
0.562001 0.331674 -3.603
0.375624 0.0938843 -1.83317
-1.04302 0.612923 -3.582
0.696119 0.334632 -3.622
0.417256 -0.177102 -1.81775
-1.84371 0.33285 -3.57275
1.42202 0.0455009 -2.711
0.705477 0.33459 -3.62
0.711578 0.334498 -3.619
1.47465 0.229181 -3.636
1.17068 -0.654326 -2.715
-1.20492 0.0978817 -3.42
0.736292 0.334286 -3.613
-0.563765 -0.399779 -1.535
0.297525 1.34388 -3.5805
1.5371 0.0197226 -3.504
0.759388 0.336154 -3.631
0.760864 0.334025 -3.608
1.97694 1.5224 -3.669
0.771794 0.332885 -3.629
-0.116061 0.312891 -3.555
1.91653 1.6344 -3.6515
0.796223 0.33252 -3.6225
0.836736 0.332302 -3.61425
0.857139 0.337277 -3.632
-1.00407 0.0737221 -3.36433
0.88509 0.333871 -3.62575
1.70578 1.41404 -3.6245
0.897348 0.333711 -3.62275
-0.00625294 -0.415048 -1.188
0.906778 0.333681 -3.6205
-0.692793 -0.39897 -1.115
0.961194 0.334971 -3.6275
0.976984 0.33493 -3.625
0.996059 0.336344 -3.62567
-1.06222 0.344485 -3.5765
1.0079 0.332535 -3.5935
-1.92807 0.0968767 -3.452
1.01738 0.332535 -3.591
1.75936 -0.607845 -3.601
1.04281 0.334614 -3.612
1.05512 0.334871 -3.60067
-0.323419 -0.421564 -1.4735
1.08199 0.338117 -3.608
1.49564 0.601012 -2.72
1.10514 0.339364 -3.619
1.12365 0.339167 -3.613
1.15896 0.340162 -3.618
-1.91274 1.58398 -3.592
1.21188 0.340643 -3.614
1.25672 -0.282855 -3.629
1.24418 0.342473 -3.63
1.14101 0.327714 -3.626
1.28635 -0.35482 -3.632
-0.0448634 -0.150639 -1.867
1.27497 0.342956 -3.629
1.23051 0.0845207 -3.637
1.30711 -0.325265 -3.62325
1.29598 0.342536 -3.621
-1.53397 1.02499 -3.5865
1.32546 0.342659 -3.6155
0.400697 0.0335314 -2.386
1.3458 0.342911 -3.614
1.37627 -0.308249 -3.62567
1.36714 0.344222 -3.625
1.37718 0.344302 -3.623
1.45714 -0.30571 -3.633
1.44736 0.343107 -3.633
1.17694 -0.696692 -3.5315
-0.57403 1.43467 -3.595
-0.566815 0.788522 -3.598
-1.22995 1.29678 -3.576
-1.22229 0.642528 -3.5735
1.48631 0.343318 -3.589
0.0255684 -0.413331 -1.254
-1.74111 -0.449778 -3.239
1.49611 0.344085 -3.596
1.50635 0.344946 -3.605
-1.55291 -0.68123 -3.219
1.53647 -0.306583 -3.626
1.52698 0.346683 -3.619
1.5431 0.347374 -3.622
1.54849 0.345658 -3.602
1.45257 0.110806 -2.714
1.56071 0.345484 -3.597
0.362847 1.46471 -3.601
1.59108 0.343171 -3.6015
0.281662 -0.416097 -1.376
1.594 0.342854 -3.56
1.40774 0.262719 -2.71
-1.77483 1.02492 -3.572
-1.7622 0.393998 -3.577
1.42338 0.262842 -2.708
1.44573 0.266035 -2.739
-0.886067 0.0627245 -3.548
1.48323 0.270795 -2.755
1.4974 0.265788 -2.722
1.54125 0.267597 -2.701
-0.956099 0.954246 -3.4505
1.54113 0.266704 -2.691
1.55656 0.264013 -2.71467
1.57086 0.267493 -2.692
-0.663621 -0.408946 -1.192
1.59739 0.270278 -2.717
-1.31935 -0.647508 -3.254
-1.95545 0.315918 -3.247
-1.57382 1.48153 -3.571
-1.97354 0.322507 -3.3325
-1.9643 0.324592 -3.36125
-0.0825917 0.313596 -3.563
1.50355 0.801462 -2.7325
1.63461 1.03335 -3.582
-1.96164 0.333157 -3.426
-0.734806 1.08327 -3.511
-1.97121 0.332655 -3.4565
1.63265 1.03811 -3.628
-1.96331 0.331697 -3.46067
1.44876 0.672107 -2.699
-1.97303 0.338398 -3.485
0.296518 -0.426421 -1.70286
-0.683725 1.31421 -3.594
-1.96143 0.334836 -3.4855
-0.260511 -0.411285 -1.556
-1.92413 0.343575 -3.56
-1.90282 0.342706 -3.556
-1.89217 0.342562 -3.557
-1.14757 0.253079 -3.568
-1.88693 0.342804 -3.562
1.35763 0.0746467 -2.695
0.370863 -0.411749 -0.91
1.66779 0.953036 -3.554
-1.8834 0.343358 -3.569
1.61707 -0.0652403 -3.653
-0.862517 1.11122 -3.544
-1.85217 0.342455 -3.567
-1.77755 0.340743 -3.566
-1.65377 0.335567 -3.574
-1.57541 0.336654 -3.567
-1.55394 0.332974 -3.5675
-1.54787 0.333056 -3.5705
-0.103657 0.272668 -3.551
-1.51429 0.335275 -3.565
-1.45068 0.334693 -3.572
0.745051 -0.405485 -1.57156
-0.717804 1.50256 -3.598
-1.43223 0.334135 -3.57
1.49819 0.263844 -2.729
1.82074 1.14844 -3.679
-1.41704 0.334331 -3.576
0.535847 0.995821 -3.617
-1.39276 0.333125 -3.566
-0.244534 1.35521 -3.558
-1.35344 0.332884 -3.571
-1.93291 -0.0661761 -3.247
-1.33815 0.332258 -3.568
-1.72395 1.36312 -3.566
-1.32695 0.332645 -3.574
-1.01682 -0.629076 -3.411
-0.334596 1.37262 -3.599
-1.25402 0.32461 -3.533
-1.03947 0.185555 -3.562
-1.23553 0.32225 -3.509
-1.22543 0.324352 -3.498
-1.0276 1.28269 -3.589
1.89202 0.662461 -3.7105
-1.37176 0.143371 -3.545
0.0470135 0.0929532 -1.8442
-1.22186 0.326725 -3.527
-1.22042 0.328022 -3.541
-1.15468 0.329912 -3.5755
-1.6318 -0.75413 -3.144
0.485519 -0.196587 -3.62525
0.477266 0.424577 -3.624
-1.09282 0.329387 -3.58
-1.0131 0.324975 -3.5795
0.356822 1.02989 -3.585
1.93266 0.745118 -3.8165
-0.964408 0.325877 -3.58433
-0.15269 0.272951 -3.553
-1.93141 1.30354 -3.542
-1.919 0.673703 -3.541
-0.952796 0.3248 -3.5855
-0.824988 1.22283 -3.592
-0.815087 0.573832 -3.5905
-0.926056 0.322836 -3.579
-0.921279 0.326808 -3.578
-0.893609 0.323868 -3.584
-0.885007 0.324998 -3.562
0.520597 1.1254 -3.625
0.767112 0.258551 -3.61
-1.0234 0.132655 -3.575
-0.373309 1.05516 -3.591
-0.363178 0.423257 -3.5925
-0.824882 0.322746 -3.5795
-0.814309 0.323726 -3.58
-0.801943 0.32378 -3.58233
-0.772475 0.323557 -3.5595
-0.75407 0.323649 -3.563
-0.744967 0.32374 -3.564
-0.181323 0.0821358 -3.642
-0.735722 0.323771 -3.5665
1.75809 -0.204924 -3.637
-0.72639 0.323763 -3.568
-0.720785 0.324035 -3.571
1.43861 1.36602 -3.614
-0.67546 0.323166 -3.567
-0.658044 0.32072 -3.54
-0.657611 0.323534 -3.573
-0.648124 0.321904 -3.555
-0.650798 0.326341 -3.604
0.163906 -0.417968 -1.384
-0.627037 0.314434 -3.508
-0.414123 0.314605 -3.5265
-0.409552 0.315778 -3.5405
-0.396232 0.322934 -3.586
-0.222227 0.322117 -3.586
-1.12508 1.13289 -3.588
-1.1173 0.534272 -3.581
-0.171081 0.318915 -3.552
-0.534226 0.417221 -3.583
-0.164963 0.318915 -3.552
1.44905 -0.685596 -3.5235
-0.113128 0.319368 -3.558
0.000201362 0.319102 -3.556
0.027745 0.319102 -3.556
0.0553974 0.31973 -3.563
-0.436177 -0.119334 -1.87067
-0.442183 0.378268 -3.5765
0.0866172 0.321794 -3.586
0.192707 -0.302258 -2.273
0.184959 0.32107 -3.576
0.827039 0.821478 -3.6
0.216093 0.321578 -3.58
0.418129 0.322787 -3.5835
-1.47518 -0.648782 -2.614
0.437174 0.323135 -3.5865
1.5619 0.863566 -3.571
-1.56995 0.184215 -3.561
-1.71076 -0.645657 -3.2705
0.478478 0.323148 -3.60667
0.023071 -0.429434 -1.3725
0.555759 0.322307 -3.603
0.0350072 1.02606 -3.604
0.565072 0.322279 -3.60225
1.0102 -0.688763 -2.596
-0.023155 -0.286846 -1.82664
0.626637 0.32345 -3.61
0.645323 0.323397 -3.608
-1.23887 0.211438 -3.485
0.705619 0.325207 -3.6215
0.797555 0.324174 -3.6
-0.112826 -0.299552 -2.2555
-1.17516 1.51104 -3.5915
0.804107 0.324284 -3.5995
0.809937 0.324105 -3.5975
0.85522 0.328968 -3.6105
-0.295379 0.087726 -1.942
1.13771 0.334098 -3.6265
1.15896 0.333758 -3.618
0.354658 -0.416407 -1.386
1.17618 0.335016 -3.63
0.487595 0.0132348 -3.621
1.18521 0.334844 -3.6265
1.22867 0.332094 -3.624
1.23938 0.33473 -3.616
1.2782 0.336499 -3.629
1.22465 0.0543807 -3.634
1.30206 -0.31514 -3.62
1.56252 -0.196222 -3.641
1.55484 1.08669 -3.645
1.2958 0.332816 -3.6205
-1.06535 0.173672 -3.57175
1.32814 0.332309 -3.62033
0.475735 -0.424086 -1.6415
1.33638 0.333292 -3.6175
0.385914 0.275437 -3.57625
1.34609 0.333299 -3.61525
1.39452 -0.294405 -3.625
1.38688 0.334575 -3.622
1.47686 0.334406 -3.6015
1.48849 0.33557 -3.612
1.48487 0.333297 -3.5855
0.543128 0.952757 -3.629
1.49548 0.33423 -3.595
1.87811 1.56332 -3.6415
1.06321 0.226314 -3.664
1.50863 0.332844 -3.5755
0.0508074 -0.303944 -1.831
-0.192075 1.10435 -3.576
-0.184695 0.472363 -3.569
1.82733 1.17575 -3.673
1.51737 0.332639 -3.57175
0.0182114 0.246973 -3.492
1.56632 0.339492 -3.6035
1.59663 0.332195 -3.56033
-1.46623 -0.287338 -3.2765
1.72786 0.341113 -3.63467
-0.493045 -0.398545 -1.39633
1.39427 0.256169 -2.695
1.4579 0.26388 -2.74
1.48834 0.267532 -2.775
1.48807 0.266565 -2.764
1.48343 0.264823 -2.744
1.52396 0.263052 -2.712
-0.584845 0.933963 -3.591
1.53212 0.261003 -2.685
1.58654 0.262956 -2.72375
-1.96487 0.314497 -3.276
-0.223591 -0.40631 -0.932133
0.287921 -0.426417 -1.658
-1.97141 0.313931 -3.3055
-1.94425 0.332535 -3.503
-0.963234 0.641131 -3.59
-1.94756 0.334218 -3.522
-0.253351 -0.409177 -1.05243
-1.93251 0.332294 -3.542
0.375594 -0.408474 -1.13175
1.93379 0.546368 -3.85
-1.8927 0.336084 -3.558
1.34404 0.0612739 -3.64
-1.71004 0.333784 -3.579
-0.695121 1.55594 -3.608
-1.56022 0.329713 -3.565
-0.573319 -0.408727 -1.13467
0.866041 1.17711 -3.605
0.873621 0.523058 -3.6065
-0.954561 0.44518 -3.58525
-1.95038 0.120718 -3.388
-1.8251 0.120783 -3.425
-0.35514 -0.201523 -3.554
-1.44487 0.325197 -3.5755
1.47716 -0.445027 -3.527
1.56892 0.911454 -2.7335
1.57229 0.263555 -2.7355
-1.43244 0.324566 -3.5715
1.5678 0.593979 -3.60233
-1.42345 0.324707 -3.575
-1.39895 0.323492 -3.5655
-1.39335 0.323673 -3.5675
-1.3848 0.324735 -3.57
-1.37375 0.322011 -3.56533
-1.36578 0.323202 -3.568
1.53729 0.293473 -3.561
-1.35964 0.323257 -3.5705
-0.0913539 0.0129278 -3.553
-1.35366 0.323355 -3.5725
1.41052 0.051904 -2.8
-0.0741752 -0.166648 -1.8432
-1.34357 0.323231 -3.573
-0.794398 1.21397 -3.59
-0.787311 0.586841 -3.596
-1.94581 1.62341 -3.58367
-1.31519 0.322535 -3.57125
0.678273 -0.403209 -1.426
-1.30651 0.325939 -3.575
-1.28957 0.324884 -3.567
0.464878 0.113032 -1.81275
-1.95155 1.59447 -3.589
-1.28178 0.324519 -3.563
-1.22323 0.316021 -3.49933
-1.17542 1.29504 -3.601
-1.21663 0.320729 -3.53
-1.20995 0.323978 -3.57
-1.155 0.323672 -3.5765
-1.11742 0.322873 -3.574
0.107464 1.0989 -3.581
-1.105 0.322934 -3.577
-0.443606 1.07258 -3.591
0.380758 0.078966 -2.266
-1.6639 -0.587696 -3.3055
-1.04409 0.322654 -3.584
-0.968758 0.321732 -3.584
0.380309 1.30252 -3.615
0.390204 0.69289 -3.614
0.398173 0.0442718 -3.609
-0.844219 0.319841 -3.579
-0.334286 0.785633 -3.585
1.62465 0.385409 -2.773
-0.834533 0.319725 -3.5795
-0.772783 0.314983 -3.557
-0.742655 0.315355 -3.565
0.44447 -0.140093 -2.3815
-0.734407 0.313297 -3.56567
-0.72639 0.317551 -3.568
-0.722856 0.313674 -3.571
-0.649218 0.313167 -3.561
-0.389492 0.31135 -3.525
-0.275917 0.117189 -1.841
-0.331072 0.31369 -3.555
-1.66914 0.379101 -3.581
-0.294672 0.314126 -3.562
-0.264204 0.314421 -3.567
-0.233276 0.314174 -3.566
-0.223998 0.314086 -3.565
-1.6543 1.34488 -3.57
-0.183521 0.313148 -3.556
-0.17414 0.312796 -3.552
-0.143614 0.312928 -3.5535
-1.774 -0.2276 -3.2925
-0.98457 1.03538 -3.448
0.0480312 0.863973 -3.57533
-0.133369 0.31318 -3.58033
-0.123143 0.315356 -3.583
0.785025 0.965262 -3.6145
-0.110159 0.313507 -3.562
-0.104028 0.313507 -3.562
-0.297158 0.0808072 -2.739
-0.0948824 0.313684 -3.564
-1.9032 -0.178548 -3.318
-0.0733101 0.313243 -3.559
-1.67508 0.653393 -3.5825
-0.0427282 0.313596 -3.563
-0.0059261 0.313331 -3.56
0.496316 0.93322 -3.595
0.0277355 0.312891 -3.555
0.04618 0.313464 -3.5615
1.44523 -0.103379 -2.679
0.144907 0.314865 -3.5755
0.0157176 0.584222 -3.587
0.156436 0.311238 -3.581
0.160414 0.315085 -3.578
0.172883 0.31535 -3.581
1.34603 -0.507744 -3.642
1.31587 1.37378 -3.6395
1.33591 0.104538 -3.642
0.176829 0.310946 -3.57767
0.196724 -0.29649 -2.274
-0.941857 1.27345 -3.58425
-0.924427 0.0132774 -3.585
0.188064 0.314953 -3.5765
0.203529 0.315055 -3.576
-0.356967 0.351846 -3.567
0.207798 0.311188 -3.57933
0.215972 0.315232 -3.578
-0.722084 -0.405918 -1.263
-1.12091 1.33213 -3.597
1.0975 0.23436 -3.6315
-0.205417 1.16527 -3.578
-0.733685 0.666419 -3.546
0.226707 0.313029 -3.553
0.232829 0.313029 -3.553
-1.32155 0.264548 -3.564
0.25472 0.312813 -3.57267
0.295408 0.314478 -3.566
-0.225978 -0.402767 -1.877
1.45325 0.0230638 -2.705
0.301812 0.314743 -3.569
0.307881 0.314655 -3.568
0.676776 0.522563 -3.6265
-0.783994 0.882836 -3.444
0.317066 0.314611 -3.5675
0.334793 -0.415355 -2.0575
0.326159 0.314478 -3.566
0.345139 -0.411749 -1.11
0.335531 0.314616 -3.5655
-1.51081 1.1432 -3.57667
-1.5017 0.495093 -3.576
-0.817648 0.447556 -3.596
0.347738 0.314528 -3.5645
-1.03024 0.683771 -3.496
0.357216 0.314748 -3.567
0.396696 0.313685 -3.5875
-0.495065 0.89378 -3.5945
-1.18076 0.127932 -3.414
1.06668 0.973246 -3.632
0.405704 0.313465 -3.584
1.07469 0.20228 -3.6345
0.418058 0.313443 -3.58375
0.427416 0.313497 -3.5835
-0.314353 -0.408459 -1.30467
-0.843671 0.973787 -3.44425
0.468008 0.313729 -3.5835
-0.434673 -0.415091 -1.0625
-0.452642 0.815497 -3.596
0.495802 0.315646 -3.6035
-0.0536412 1.14463 -3.58975
0.57444 0.31916 -3.601
0.66203 0.322299 -3.629
0.376314 0.290607 -3.573
-0.00299058 1.34248 -3.5935
0.765714 0.323497 -3.631
0.816269 0.320987 -3.596
0.855457 0.322746 -3.6115
0.864768 0.322687 -3.609
0.912991 0.324125 -3.62
0.946789 0.323761 -3.611
0.955758 0.323582 -3.608
0.977363 0.322324 -3.62675
1.00808 0.323113 -3.5945
-0.855097 1.15434 -3.5755
1.06993 0.322403 -3.614
1.08912 -0.152131 -3.618
1.62529 0.521204 -3.524
1.07607 0.322336 -3.611
1.09866 0.326559 -3.621
1.1056 0.323525 -3.6205
1.12556 -0.25437 -3.612
1.11747 0.323262 -3.616
1.23956 1.31384 -3.645
1.12682 0.323196 -3.6135
1.15582 0.324169 -3.62
-0.603662 -0.413613 -1.16667
1.37215 -0.267888 -3.623
1.36498 0.38341 -3.626
1.39042 0.0818043 -2.772
-0.0290736 -0.407827 -1.09
-0.0326587 -0.396068 -1.8104
1.20608 0.324774 -3.6175
1.23698 0.32452 -3.62267
0.539123 -0.409031 -1.2435
1.45678 -0.298449 -3.624
1.45068 0.33259 -3.625
-0.0849623 0.043309 -3.541
1.46728 0.33415 -3.639
0.874294 0.729381 -3.589
1.55804 0.333295 -3.608
1.56655 0.333024 -3.604
1.55408 0.325114 -3.55
1.45494 -0.6099 -3.598
1.56553 0.325494 -3.55175
1.62524 0.328435 -3.535
1.40776 0.252736 -2.7105
1.41923 0.256404 -2.722
1.44251 0.259691 -2.755
0.713799 0.276245 -3.6
1.42391 0.255443 -2.709
1.44429 0.256114 -2.742
1.45642 0.258106 -2.732
1.48498 0.255167 -2.72967
-1.40162 1.02061 -3.5855
1.50526 0.255303 -2.716
1.50747 0.25568 -2.7195
1.82472 1.40258 -3.679
1.51373 0.254335 -2.71233
2.00011 1.3252 -3.67
-1.83546 0.229892 -3.561
1.52454 0.182442 -3.603
1.59554 0.263153 -2.755
-0.99342 0.0507434 -3.563
1.60869 0.262778 -2.747
-1.9569 1.46408 -3.476
-1.94601 0.830463 -3.478
1.60877 0.260297 -2.716
-1.96598 0.306306 -3.27633
0.0730158 0.255651 -3.527
-1.97176 0.312853 -3.332
-0.710309 0.974128 -3.4845
-1.97134 0.323009 -3.458
-1.95688 0.322749 -3.459
-1.93927 0.323029 -3.507
-1.30426 0.948593 -3.586
-1.939 0.328444 -3.534
1.60703 1.03264 -3.587
-1.86435 0.329726 -3.569
1.56862 0.851879 -2.764
-1.82282 0.32548 -3.5695
1.89139 1.18144 -3.677
-1.55503 0.323524 -3.57
0.428611 -0.306887 -1.7978
-1.29776 1.30575 -3.59
-1.4832 0.321942 -3.567
-1.4627 0.321669 -3.568
-0.204247 0.0812946 -3.603
-1.71681 0.695041 -3.5815
-1.32472 0.319343 -3.568
0.706481 0.694569 -3.614
-1.7865 0.136749 -3.532
-1.27391 0.314619 -3.5605
-1.53346 0.165281 -3.55367
-1.25502 0.314645 -3.527
-1.55926 -0.433946 -3.255
-1.23553 0.312886 -3.509
-1.21805 0.313207 -3.516
-1.21576 0.314229 -3.53
-1.12391 0.316607 -3.573
-1.11335 0.314491 -3.576
-1.06516 0.316038 -3.578
-0.384158 -0.407662 -1.309
0.98105 1.57194 -3.611
-1.05344 0.313149 -3.5825
-0.964754 0.315159 -3.5815
-0.953799 0.31325 -3.58567
-0.934589 0.314527 -3.579
2.11266 1.64436 -3.68
-0.924926 0.314441 -3.579
-0.892743 0.313053 -3.568
-0.876397 0.313908 -3.579
-0.869441 0.313657 -3.578
-0.783967 0.310777 -3.5545
-0.769298 0.311111 -3.56
-0.629182 0.303284 -3.52
0.768625 1.21238 -3.64
-0.420175 0.302385 -3.527
-0.0381649 1.3955 -3.577
-0.410882 0.304528 -3.552
1.31554 0.655366 -3.652
-0.405943 0.305428 -3.5625
0.392273 0.06655 -2.385
-0.386018 0.307341 -3.551
0.354187 -0.412332 -1.145
0.356062 -0.425102 -1.78963
0.1868 -0.149676 -1.933
-0.333735 0.304119 -3.55225
1.22583 -0.236746 -3.619
-0.433755 -0.036211 -1.85914
1.26769 1.31512 -3.623
-0.315419 0.304181 -3.5535
-0.592515 1.14514 -3.586
-0.294288 0.307579 -3.559
-0.273311 0.305066 -3.5655
-0.263953 0.304904 -3.5645
-0.252916 0.305773 -3.539
1.51977 0.883057 -3.6235
1.52512 0.265343 -3.627
-0.241175 0.305609 -3.56167
-0.201865 0.303916 -3.5555
-0.192708 0.303959 -3.556
-0.174188 0.303703 -3.553
-0.125187 0.303583 -3.5535
0.78508 0.974943 -3.6135
-0.113191 0.307288 -3.561
1.47791 -0.279242 -3.624
-1.4115 -0.195106 -3.29
-0.104013 0.304266 -3.5615
-0.535032 -0.399266 -1.3925
-0.0948175 0.304266 -3.5615
-0.0733307 0.304137 -3.56
-0.0427462 0.304521 -3.5645
0.616453 0.8841 -3.611
-0.0335618 0.304694 -3.5665
-0.0243341 0.30445 -3.5645
-0.0151306 0.304385 -3.56375
0.000201399 0.303852 -3.5575
0.166887 0.784073 -3.61375
0.02671 0.304652 -3.55467
0.0553896 0.304352 -3.5625
0.0860013 0.304179 -3.5605
0.126287 0.305269 -3.57325
-1.19663 0.124983 -3.4145
1.44117 0.492003 -2.7145
0.148132 0.309008 -3.579
0.191331 0.309094 -3.58
0.210084 -0.184523 -3.588
0.197497 0.309094 -3.58
0.216033 0.309151 -3.579
0.221516 0.308201 -3.568
0.226899 0.304098 -3.556
0.246866 0.309151 -3.579
0.26808 0.305647 -3.57275
0.276985 0.308356 -3.568
-0.944767 -0.243409 -3.572
0.295354 0.305195 -3.567
0.676562 0.535042 -3.6245
0.316933 0.305251 -3.566
0.32625 0.308413 -3.567
-1.71437 -0.206073 -3.305
0.33439 0.304253 -3.56633
-0.82411 0.433405 -3.584
0.338939 0.308764 -3.569
0.527348 0.312751 -3.6045
-0.97984 1.51351 -3.54
0.596295 0.314568 -3.62
0.62681 0.314138 -3.611
2.01057 -0.303901 -3.65
0.668333 0.315994 -3.629
0.686763 0.312623 -3.6245
0.378151 -0.0487281 -1.8845
-1.89506 1.01445 -3.563
-1.8851 0.382564 -3.5635
0.696118 0.312581 -3.623
0.14699 -0.0124018 -1.856
0.765714 0.317169 -3.631
0.76715 0.31516 -3.608
0.785284 0.314869 -3.603
0.416365 0.833321 -3.606
-1.64916 0.1361 -3.547
-0.564119 1.37326 -3.59933
0.794747 0.314886 -3.6015
0.810049 0.31473 -3.598
1.09858 -0.152561 -3.626
1.08183 0.493719 -3.621
0.838011 0.312386 -3.616
0.855527 0.313301 -3.61225
-1.00761 0.0727443 -3.567
-0.483092 -0.413222 -1.1025
0.866736 0.312117 -3.60967
-1.17791 0.235176 -3.578
-0.752636 0.493378 -3.5915
0.92726 0.315493 -3.61667
1.04743 0.315011 -3.606
-0.194535 0.0335304 -3.578
1.11153 0.320197 -3.619
1.1414 0.31962 -3.607
1.48566 0.242966 -3.645
-1.08396 0.192492 -3.56725
-1.66739 0.657518 -3.588
1.18842 0.320264 -3.607
-1.81094 0.635544 -3.582
1.30485 0.322993 -3.617
0.476136 -0.40839 -1.00386
1.34705 -0.329581 -3.627
1.07972 -0.274007 -3.627
1.33731 0.323831 -3.62
1.35583 0.323627 -3.614
1.38573 -0.342492 -3.619
1.37684 0.324776 -3.624
1.45608 0.228948 -2.749
1.40743 0.325108 -3.621
-0.0833656 -0.4255 -1.77114
1.42197 -0.284978 -3.625
1.41467 0.325282 -3.621
1.45029 -0.256169 -3.626
1.43709 0.322697 -3.6255
-0.482722 -0.39818 -1.3935
1.83853 -0.246631 -3.646
1.45068 0.322832 -3.625
0.279525 0.509876 -3.588
1.45517 0.322384 -3.618
-1.97069 0.793313 -3.487
1.46975 0.327434 -3.636
1.47751 0.323009 -3.621
1.48808 0.322481 -3.611
1.48423 0.323473 -3.586
0.0232913 -0.44076 -1.465
-1.02567 0.705466 -3.478
1.49444 0.324289 -3.593
1.52568 -0.299209 -3.618
1.51727 0.323164 -3.6135
-0.192156 1.0985 -3.5775
-0.18189 0.439123 -3.577
1.51747 0.322993 -3.5725
-0.263978 0.0437411 -3.571
1.5358 0.322786 -3.565
0.335451 -0.405642 -1.1336
-1.27783 -0.417479 -3.332
1.60458 0.324324 -3.567
-1.97913 0.930632 -3.328
-1.5566 0.174505 -3.562
1.59703 0.312646 -3.46625
1.71716 0.330426 -3.616
-0.1519 -0.40931 -1.3138
1.40333 0.24609 -2.6915
1.65823 0.997901 -3.6005
-0.133513 0.455504 -3.57633
1.42992 0.0759049 -2.947
1.42994 0.252393 -2.731
1.44991 0.252364 -2.725
1.46806 0.253323 -2.732
0.754724 0.951423 -3.629
1.56919 0.256222 -2.741
-0.924261 0.815603 -3.43375
0.304818 0.0735612 -2.014
1.6044 0.255202 -2.7505
-1.96913 0.299564 -3.242
-0.735313 1.06555 -3.4855
-1.96975 0.314254 -3.429
-1.97134 0.316564 -3.458
-0.963099 1.28234 -3.5865
-0.953397 0.625429 -3.58633
0.857401 1.21281 -3.588
-1.95434 0.315797 -3.494
2.01716 1.34122 -3.67
-1.89167 0.32332 -3.5635
0.369968 -0.423307 -1.504
-1.88023 0.32305 -3.563
-0.363292 -0.414511 -1.074
-0.36026 -0.426208 -1.699
-1.86461 0.323191 -3.5695
1.68189 -0.623486 -3.59
1.29069 0.302604 -3.608
-1.85425 0.323105 -3.571
-0.459659 -0.411897 -1.567
1.08591 -0.0184157 -3.63
1.06398 1.45062 -3.637
1.07591 0.823993 -3.638
-1.84409 0.323055 -3.5735
0.692966 0.303131 -3.624
0.675612 0.88254 -3.5995
0.684465 0.284543 -3.60267
-1.47305 0.234627 -3.563
0.27596 0.903493 -3.581
-1.56496 0.314751 -3.566
-1.55481 0.313797 -3.5695
1.12794 1.21157 -3.6525
-1.54215 0.313192 -3.56525
1.87042 1.21787 -3.708
-0.824905 0.753255 -3.434
-1.51592 0.313946 -3.567
-1.48984 0.31235 -3.5665
-1.48362 0.312394 -3.568
-0.36473 1.41253 -3.60325
-1.47459 0.312523 -3.5725
-0.0125601 -0.367016 -1.82322
-1.40829 0.314563 -3.572
-1.38401 0.314137 -3.571
-1.36319 0.313761 -3.5705
-1.35349 0.313734 -3.573
-1.92539 -0.617476 -3.155
1.82718 0.00746633 -3.65
1.80713 1.26057 -3.649
-1.33035 0.312796 -3.566
-1.23298 0.303663 -3.5115
-1.2184 0.30392 -3.517
-1.2161 0.308047 -3.531
-1.21429 0.309181 -3.544
-1.1316 0.312411 -3.599
1.6997 0.673562 -3.5765
-1.09322 0.309646 -3.571
-0.934589 0.305113 -3.579
-0.924801 0.304988 -3.5795
-0.893118 0.30381 -3.5695
-0.883398 0.304767 -3.582
0.527976 -0.41543 -1.29617
-1.95381 1.24404 -3.343
1.37575 0.033214 -3.639
-0.872927 0.304394 -3.579
1.0833 1.57608 -3.607
-0.863546 0.304397 -3.5795
1.36637 -0.633489 -3.639
1.34016 1.24446 -3.642
-0.844619 0.304342 -3.5825
-0.824243 0.304569 -3.551
-0.783894 0.304547 -3.555
-1.92593 1.21351 -3.0825
-0.762096 0.304505 -3.557
-0.743681 0.304578 -3.56
-0.734735 0.304724 -3.5625
-0.725576 0.304785 -3.564
-0.361845 -0.0557388 -1.90233
-0.675271 0.304478 -3.566
1.56371 0.743996 -2.72433
-0.667385 0.30371 -3.557
-1.45208 -0.423637 -3.2445
-0.639624 0.302275 -3.544
1.48257 0.534061 -3.602
1.32689 -0.124196 -3.63033
1.30748 1.30401 -3.632
-0.401531 0.303669 -3.58
1.34115 1.29543 -3.635
1.34809 0.619555 -3.629
-0.383204 0.303838 -3.582
0.291297 1.434 -3.608
-0.29404 0.301187 -3.556
-0.252638 0.299342 -3.536
-0.134305 0.300396 -3.552
0.796332 0.323086 -3.623
-0.113034 0.300734 -3.556
-1.36168 -0.558503 -3.288
0.0495826 0.303271 -3.586
-1.29419 0.213377 -3.564
0.137395 -0.0312012 -1.8345
0.0920393 0.300818 -3.557
0.0988517 0.302933 -3.582
0.157335 0.30276 -3.579
-1.00725 1.01473 -3.464
0.166623 0.302842 -3.579
0.197331 0.302673 -3.577
0.203491 0.302673 -3.577
0.209827 0.302927 -3.58
-0.125268 1.42331 -3.595
-0.118582 0.782482 -3.592
-1.14474 0.213382 -3.57333
0.216114 0.303096 -3.582
0.826402 0.64284 -3.618
0.220896 0.301205 -3.558
0.246649 -0.295455 -2.279
0.24117 0.303575 -3.586
0.796758 1.14413 -3.6265
0.807212 0.522717 -3.62133
-1.20664 0.232172 -3.525
0.496189 0.0413299 -1.8705
0.247142 0.303321 -3.583
0.406984 0.0722893 -2.30233
0.277295 0.302542 -3.572
-1.80706 0.798365 -3.588
0.351454 0.302773 -3.571
0.405706 0.304177 -3.585
0.458804 0.304492 -3.586
0.518101 0.305294 -3.6275
0.527501 0.305284 -3.627
-0.889196 0.942556 -3.441
-1.53403 0.254935 -3.565
0.645771 0.304812 -3.6105
0.76715 0.308871 -3.608
0.785502 0.30553 -3.604
0.794764 0.305468 -3.602
-0.00264736 -0.364029 -1.81038
0.901414 0.309644 -3.601
0.977379 0.312778 -3.6275
0.987711 0.313026 -3.629
1.37511 -0.651967 -2.703
1.00269 0.313724 -3.635
0.998799 0.310531 -3.598
1.0392 0.313181 -3.623
1.06519 0.311463 -3.598
-0.464604 -0.407218 -1.32257
1.08912 -0.145761 -3.618
1.0757 0.312675 -3.612
1.0876 0.312437 -3.607
1.25791 -0.247004 -3.624
1.23876 1.30597 -3.622
1.24498 0.382895 -3.62233
1.12679 0.313611 -3.614
1.13547 0.313366 -3.61
1.18302 0.314134 -3.61
1.18875 0.31396 -3.608
1.20602 0.315134 -3.619
1.35695 -0.335304 -3.617
-0.392995 1.2543 -3.593
-0.386278 0.624291 -3.589
1.34594 0.313895 -3.61625
1.35545 0.313854 -3.613
-0.023266 1.3756 -3.58567
0.399074 0.0516445 -2.3635
-0.327736 0.00879049 -2.404
-0.634951 1.24261 -3.59
-0.622871 0.592691 -3.59025
1.36519 0.313867 -3.61175
1.3888 -0.336758 -3.627
1.38063 0.315181 -3.6245
1.39567 -0.317374 -3.628
-1.81353 0.896332 -3.567
1.38709 0.315179 -3.6235
-1.3165 -0.669626 -3.245
1.39688 0.315191 -3.62175
-0.872656 0.0932827 -3.5325
1.4143 0.315465 -3.622
1.47747 0.315102 -3.603
1.4832 0.313573 -3.5835
1.51875 0.314445 -3.57267
-1.94154 -0.134598 -3.202
1.52823 0.313556 -3.573
1.53578 0.31312 -3.566
-0.265266 1.36375 -3.5795
-0.251829 0.710388 -3.579
-0.239845 0.0653722 -3.5795
1.55605 0.311166 -3.55033
1.56717 0.313815 -3.554
1.5857 0.316666 -3.558
1.59464 0.313935 -3.5625
1.52168 0.0136549 -3.581
-0.843858 0.389946 -3.588
1.61603 0.31504 -3.53
-0.874445 1.34407 -3.597
1.67607 0.704724 -3.5705
1.72672 0.323772 -3.613
0.226082 -0.160225 -3.597
0.206332 1.10465 -3.5975
-0.157604 -0.410434 -1.108
1.40175 0.245944 -2.721
1.38984 0.242125 -2.676
1.43127 0.244206 -2.723
1.13779 1.50353 -3.643
1.14732 0.83529 -3.647
1.47983 0.248124 -2.728
-0.0916364 0.294694 -3.557
-1.76964 0.955613 -3.568
1.48769 0.247751 -2.721
-1.36349 -0.705426 -3.16433
1.49645 0.247532 -2.71633
1.50528 0.244808 -2.7115
1.50917 0.244625 -2.7075
1.54556 0.245919 -2.70333
0.321033 -0.409509 -2.218
-0.591513 1.22304 -3.59333
-0.582378 0.592906 -3.5945
-1.96818 0.292998 -3.277
0.947018 -0.634083 -2.669
-1.96258 0.295395 -3.31
-0.381157 1.09434 -3.6
-1.55293 0.193754 -3.562
0.317295 -0.417259 -1.36283
-1.95482 0.300642 -3.34
-1.96302 0.30287 -3.366
-1.97447 0.306125 -3.43267
0.286633 -0.416262 -1.80413
-1.9706 0.310511 -3.463
-0.274154 -0.415051 -2.27333
-1.70422 0.93257 -3.575
-1.69476 0.26345 -3.57467
-1.95424 0.314627 -3.521
0.303905 -0.406002 -2.221
-1.94239 0.314825 -3.527
0.307932 -0.418971 -1.553
-0.963502 0.628625 -3.591
-1.94133 0.313884 -3.54267
-0.792305 1.26403 -3.587
1.54721 0.525343 -3.622
-1.9198 0.313205 -3.5545
-1.89298 0.313118 -3.561
2.02342 -0.27086 -3.661
-1.14514 0.24377 -3.57025
-1.85373 0.31315 -3.57
0.73489 -0.407876 -1.4835
-0.114006 0.383602 -3.583
-1.16521 0.543935 -3.573
-1.77431 0.315176 -3.575
-1.72303 0.74049 -3.589
-1.40829 0.304956 -3.572
0.0572865 -0.413137 -1.19467
0.0587915 -0.385421 -1.80767
-1.37486 0.307841 -3.575
0.306136 0.884116 -3.6055
-1.34295 0.303937 -3.57275
1.53159 0.550652 -2.748
-1.30384 0.303002 -3.5695
0.304658 -0.413067 -1.5155
1.53861 -0.0860305 -2.744
1.53049 0.565666 -2.745
-0.971568 1.26898 -3.556
-1.93982 0.313353 -3.508
-1.29263 0.302613 -3.56625
-1.69695 0.303228 -3.5675
-1.27087 0.30438 -3.552
-0.0437129 -0.424156 -1.56233
1.00159 -0.174563 -3.565
-1.25929 0.303116 -3.539
-1.24141 0.300314 -3.508
-0.962894 0.192163 -3.58025
-1.2168 0.303512 -3.553
-1.20667 0.304138 -3.562
-1.1742 0.304729 -3.5755
2.01511 1.60056 -3.669
-1.16427 0.304617 -3.575
-1.81517 -0.285215 -3.2765
-1.15426 0.30448 -3.575
-1.05359 0.303725 -3.583
-1.04435 0.303794 -3.586
-1.01409 0.303237 -3.583
-0.966769 0.302229 -3.578
-1.52524 1.04883 -3.588
-0.814634 0.295154 -3.5505
-0.803114 0.29613 -3.55067
-0.734652 0.295386 -3.5625
-0.675082 0.295095 -3.565
-0.650149 0.295029 -3.568
-0.317134 0.0857089 -1.971
1.68944 0.221732 -3.569
-0.641248 0.293788 -3.553
-0.631148 0.291969 -3.531
-0.915273 0.103875 -3.57375
-0.415564 -0.415006 -0.995143
-0.420294 0.293327 -3.528
-0.410998 0.295406 -3.553
-0.40589 0.293079 -3.564
-0.401531 0.297486 -3.58
-0.389498 0.293082 -3.527
-0.383739 0.298068 -3.587
-0.354094 -0.415661 -1.05229
-0.370777 0.297605 -3.583
-0.288007 0.276753 -3.559
1.58799 0.185053 -2.746
-0.345095 -0.414489 -1.03417
1.60801 1.1132 -3.629
-0.363068 0.296359 -3.568
-0.35531 0.291965 -3.552
0.372566 -0.157256 -1.829
-0.974686 -0.137236 -3.5765
-1.87962 0.135993 -3.485
-0.311727 -0.413198 -1.3406
-0.332799 0.292955 -3.55367
-0.302126 0.292928 -3.555
0.926447 -0.67463 -2.68367
0.855617 0.913757 -3.58967
-0.592616 1.1549 -3.584
-0.294371 0.295387 -3.56
-0.273436 0.295976 -3.568
-0.263923 0.295653 -3.565
1.08737 1.03274 -3.637
-0.220266 0.29477 -3.556
0.496795 0.0930348 -1.82167
-0.204956 0.29477 -3.556
-0.183367 0.294521 -3.553
-1.62278 0.513626 -3.59
-0.174237 0.294604 -3.554
-0.161931 0.294486 -3.5545
-0.152776 0.294528 -3.555
1.43213 -0.699375 -3.548
-0.143597 0.294528 -3.555
-0.128047 0.293948 -3.548
-0.122112 0.294363 -3.553
-0.113 0.294528 -3.555
-0.0732689 0.294694 -3.557
1.13293 0.0327593 -3.63
-0.0488105 0.294886 -3.561
-0.042732 0.295217 -3.565
0.00632984 0.294969 -3.562
0.165858 0.769857 -3.5925
0.577205 1.5443 -3.6425
0.0246868 0.294638 -3.558
0.0860134 0.295025 -3.561
0.137376 -0.024886 -1.83425
0.0920393 0.294694 -3.557
0.0987689 0.296517 -3.579
0.106902 0.294243 -3.57633
0.116988 0.295854 -3.571
0.127244 0.293831 -3.57133
-0.503547 0.423768 -3.588
0.135542 0.293025 -3.574
0.867191 0.612931 -3.627
0.143786 0.292081 -3.575
1.43669 0.553801 -2.72233
0.148093 0.2966 -3.58
-0.983677 -0.115237 -3.574
0.154278 0.293558 -3.5805
0.166461 0.29331 -3.5765
0.197221 0.293266 -3.575
0.20352 0.293471 -3.5775
0.426416 -0.158943 -2.295
0.214545 0.29477 -3.556
0.424188 -0.154147 -2.283
0.220855 0.295018 -3.559
0.251477 0.29499 -3.557
-0.272145 1.46595 -3.58033
0.263363 0.294575 -3.552
1.62028 0.622534 -2.73
-0.334754 0.0435059 -1.914
-0.722928 0.724072 -3.456
0.275432 0.294391 -3.548
0.326275 -0.418455 -1.743
0.317958 0.293971 -3.566
0.354782 0.293729 -3.574
1.93609 0.743986 -3.871
-0.323061 0.482672 -3.5935
0.36963 0.296359 -3.568
-0.85493 0.0740375 -3.499
0.375682 0.296276 -3.567
0.384921 0.296281 -3.5655
-1.44916 0.941202 -3.583
0.406852 0.296003 -3.587
0.617284 1.13277 -3.605
1.13922 0.544646 -3.635
0.41528 0.295092 -3.5865
0.474668 0.295424 -3.587
0.687047 0.303298 -3.626
0.371049 -0.0488703 -1.891
0.70576 0.303216 -3.623
0.0170006 -0.436936 -1.48
1.38989 0.22488 -2.677
0.711667 0.303049 -3.621
-1.11825 1.42233 -3.592
0.822147 0.302002 -3.596
0.837935 0.302038 -3.5935
0.855596 0.303854 -3.613
0.962353 0.304675 -3.609
0.974733 0.303392 -3.6295
0.214754 1.30124 -3.599
0.22571 0.693126 -3.6065
0.980697 0.303268 -3.628
0.420266 0.071382 -2.73
-1.93073 1.36507 -3.156
1.00227 0.304018 -3.6335
1.06519 0.305122 -3.598
1.08882 -0.136168 -3.617
1.07615 0.303252 -3.6135
1.08244 0.303232 -3.611
1.08775 0.302937 -3.6075
1.42328 -0.457493 -3.6195
1.14565 0.304739 -3.607
1.15898 0.304948 -3.6205
1.16919 0.30376 -3.61667
0.465737 1.3331 -3.616
1.18281 0.304487 -3.611
-1.66739 0.670653 -3.588
1.18875 0.307568 -3.608
1.20669 -0.275284 -3.621
1.19808 0.304595 -3.62167
1.20569 0.308633 -3.618
0.9904 0.865023 -3.6405
-1.5452 1.41314 -3.575
-1.52947 0.743063 -3.578
1.25208 0.309004 -3.613
1.83399 -0.252692 -3.637
1.44777 0.31385 -3.636
1.45352 0.312984 -3.623
-1.93369 -0.57994 -3.2435
1.54835 -0.332483 -3.619
-1.96301 1.32461 -3.244
1.5369 0.314744 -3.627
1.57963 0.310293 -3.561
0.369119 1.47362 -3.597
1.58614 0.310306 -3.559
1.59443 0.306936 -3.515
-1.97313 0.252848 -3.275
0.736555 0.28404 -3.618
-1.7315 -0.106213 -3.3215
-0.998069 0.0485382 -3.401
-0.374435 0.375486 -3.584
1.58581 0.302856 -3.464
-1.97157 0.295349 -3.307
1.59688 0.303165 -3.467
-1.64301 -0.0115039 -3.346
1.71237 0.312468 -3.599
1.72696 0.313927 -3.6135
1.73298 0.31712 -3.61
-0.303698 1.11225 -3.586
1.38984 0.234731 -2.676
1.29418 1.33508 -3.6255
1.40385 0.236259 -2.6925
-0.925 0.163322 -3.572
1.4291 0.0641495 -2.897
0.948862 -0.594913 -2.578
1.45312 0.244527 -2.753
1.49206 0.243421 -2.729
-1.36446 -0.707785 -3.157
1.49715 0.243015 -2.723
1.56108 0.243933 -2.717
-1.42215 0.483613 -3.579
1.57769 0.245729 -2.735
-1.96892 0.294634 -3.339
-0.312641 0.0246342 -2.793
-1.96179 0.294503 -3.34
0.315729 -0.407834 -1.24333
-1.95147 0.304386 -3.516
-1.93613 0.309372 -3.542
-1.79059 0.309177 -3.579
-1.1654 0.53449 -3.574
-1.77298 0.305126 -3.5735
-1.7189 0.306917 -3.568
-1.63588 0.302758 -3.5765
-1.61062 0.30491 -3.567
0.257182 0.894168 -3.5835
-1.5832 0.304612 -3.57
1.13733 0.574334 -3.631
-1.54226 0.303551 -3.5655
-1.53341 0.303711 -3.57
1.3044 1.24547 -3.64
1.31705 0.594183 -3.642
-0.412612 1.05536 -3.601
-0.404733 0.399567 -3.603
-1.52394 0.30311 -3.565
-1.49857 0.303181 -3.572
-1.48962 0.302671 -3.567
-1.48403 0.30284 -3.569
0.388184 -0.126571 -3.6015
0.370879 1.17704 -3.606
0.380555 0.52466 -3.599
-1.47801 0.302923 -3.572
-1.37217 0.300853 -3.568
-1.25965 0.29375 -3.54
-0.929166 1.18868 -3.589
-0.925209 0.534685 -3.5915
-1.72237 0.173077 -3.564
-1.23286 0.294266 -3.512
-1.97632 1.18255 -3.366
-1.22135 0.2945 -3.5165
0.445747 0.0242912 -1.881
-0.564535 1.27184 -3.591
-0.557397 0.596121 -3.598
-1.21662 0.292492 -3.5325
-1.21714 0.294133 -3.554
-0.334954 1.28436 -3.585
-0.323852 0.652169 -3.588
-1.1646 0.295204 -3.576
0.207064 1.15951 -3.601
-1.1242 0.294573 -3.5755
-1.11474 0.294574 -3.57725
0.607159 1.17642 -3.61633
0.617099 0.523376 -3.615
-1.09273 0.294603 -3.582
1.31571 0.952997 -3.657
-0.408095 0.685648 -3.609
-1.06275 0.294174 -3.58125
1.19691 1.53318 -3.633
-0.435391 0.0849063 -1.8632
-1.04149 0.297563 -3.587
-1.02342 0.293749 -3.5815
1.10897 1.55754 -3.627
-1.01423 0.293824 -3.5835
-0.885568 0.0843758 -3.546
-0.982226 0.292735 -3.57525
-0.934594 0.292564 -3.58
2.14369 -0.197855 -3.666
-0.924999 0.292505 -3.58075
-0.900751 0.294891 -3.575
-0.893493 0.294561 -3.571
-0.89041 0.295612 -3.585
-0.434488 -0.406987 -1.3046
-1.16053 0.193206 -3.5675
-0.874345 0.293041 -3.581
0.171334 -0.422932 -1.427
-0.621413 0.284189 -3.512
-0.409728 0.285313 -3.543
-0.389608 0.284026 -3.528
