ply
format ascii 1.0
comment Created by Open3D
element vertex 1817
property double x
property double y
property double z
end_header
0.300181 1.3702 -3.5685
-1.52345 1.45141 -3.57671
0.455806 0.912229 -3.60567
1.3172 1.33154 -3.6315
1.3371 -0.356287 -3.637
-0.566594 -0.433719 -2.021
-0.162726 -0.413112 -1.14775
1.73608 1.33545 -3.63025
-1.90379 0.210935 -3.55622
-1.54277 0.552005 -3.57611
-1.5646 1.23446 -3.57544
0.393473 -0.0249073 -1.81625
-0.794697 1.21436 -3.58906
1.34241 1.53606 -3.6315
0.99761 0.633917 -3.618
0.355302 -0.0196831 -1.8648
1.92507 0.772719 -3.72367
-1.70576 0.293869 -3.57144
-0.223248 0.973549 -3.58906
-0.862566 1.47471 -3.60246
-0.143546 -0.425739 -1.7685
0.623657 1.22233 -3.602
0.102388 1.25283 -3.6
2.00047 1.3332 -3.67233
0.94582 0.792233 -3.63267
-0.303881 -0.101195 -3.53325
-0.859325 0.73551 -3.44872
-0.462469 0.613662 -3.59533
-0.563919 -0.409788 -1.15323
-0.296656 1.19017 -3.58358
-1.97841 1.09532 -3.3885
-0.0384981 -0.435603 -1.7558
-0.0232506 -0.386118 -1.81663
0.0962507 -0.410021 -1.17352
0.223598 0.528356 -3.587
0.359499 0.711687 -3.61413
0.70938 0.746728 -3.62325
0.762787 -0.411979 -1.47036
1.48164 0.674665 -3.66325
-1.90401 0.65511 -3.5551
1.92484 1.50539 -3.66425
-0.381969 1.17314 -3.59422
-0.357404 -0.0735147 -2.378
-1.60486 0.355973 -3.573
0.0978378 0.372884 -3.57892
-0.603722 -0.394477 -1.40943
-0.241381 -0.378659 -2.138
-0.345098 0.854851 -3.59067
0.616364 0.992639 -3.60225
0.697233 -0.416761 -1.24096
-0.463391 -0.406931 -1.52895
0.235393 -0.416087 -1.59579
0.45614 -0.413386 -1.36653
-0.00147152 -0.444007 -1.75458
-1.71444 1.39451 -3.57653
0.624453 0.506141 -3.598
2.07503 1.61328 -3.69029
1.48285 0.0136472 -3.58886
0.038653 0.734135 -3.58232
1.00244 1.47575 -3.64417
0.628097 -0.41771 -1.312
-1.06728 0.896956 -3.553
0.47686 -0.422931 -1.67958
-0.665543 0.572459 -3.59844
-1.38474 0.47538 -3.57322
-1.3966 1.55256 -3.57912
-0.15997 -0.426361 -2.26092
-0.0837512 1.53033 -3.58675
0.0379485 1.01063 -3.58433
0.0544937 0.610529 -3.5845
-1.42584 -0.207332 -3.29189
-0.0846592 -0.420669 -1.61371
-0.145636 1.11713 -3.59633
-1.25743 1.09613 -3.58257
0.959879 0.555402 -3.6335
0.986667 1.35054 -3.63286
1.46274 0.372295 -2.75033
-1.30267 0.397202 -3.57343
-1.60011 0.654556 -3.58254
-0.160515 -0.414718 -1.47444
0.0973029 1.49358 -3.60262
0.338642 1.23355 -3.59511
-0.0331449 0.5116 -3.5751
-1.83638 0.12991 -3.5085
0.0983054 0.275172 -3.56358
0.524366 1.51475 -3.62695
-0.355754 -0.149634 -2.36589
-1.44525 1.19581 -3.58822
0.802571 0.412001 -3.61551
-0.663691 0.514481 -3.593
-1.46382 1.41203 -3.579
-0.0631367 -0.405635 -0.954102
1.07551 0.291706 -3.60508
-0.862462 1.27489 -3.591
-1.72045 0.429436 -3.57939
0.597034 0.974351 -3.61192
-0.401658 -0.413327 -1.47049
-0.125355 0.914678 -3.6092
-1.20228 0.516263 -3.57544
-1.0051 1.30937 -3.55
-0.0363156 0.450692 -3.58336
1.67985 0.834278 -3.57417
-0.582641 -0.408012 -0.993951
-0.164275 0.516059 -3.5915
0.295623 -0.426261 -1.7027
0.0775976 1.19906 -3.59483
-0.143454 0.795276 -3.587
-0.29535 1.46618 -3.575
-1.93799 1.45532 -3.21415
-0.882691 0.333495 -3.57813
-1.2418 0.472718 -3.5735
1.48279 0.873353 -3.6485
0.705321 0.992589 -3.60752
-0.543639 -0.407017 -1.33492
0.101191 0.575604 -3.61083
-1.87784 1.40867 -3.58107
-0.163192 -0.414411 -1.62017
0.817528 0.533122 -3.61744
-0.543947 -0.406088 -1.3154
-1.49738 1.36843 -3.58041
1.81673 1.05389 -3.701
-0.330123 0.0132393 -2.36538
0.374669 0.475204 -3.60622
0.496323 0.353729 -3.59817
-1.13877 0.124908 -3.5125
-1.5381 1.23448 -3.58066
0.37665 0.0429217 -2.726
1.65603 1.56743 -3.66172
1.64653 0.773357 -3.62183
-1.78362 -0.145239 -3.309
-0.085126 -0.416049 -1.3657
-1.92143 -0.245966 -3.20717
0.994338 0.0134114 -3.61289
1.47794 0.391479 -3.618
0.210494 1.4829 -3.602
0.217073 0.372625 -3.59371
-1.21609 0.153566 -3.441
-0.297611 0.0902259 -3.59795
-0.320887 1.30953 -3.58475
-0.604935 0.475369 -3.5947
0.623529 0.629145 -3.61886
1.55519 0.715084 -2.7396
0.715206 0.450309 -3.6055
0.363173 1.47411 -3.59807
0.820503 0.452278 -3.628
1.41105 0.631207 -2.7064
0.26714 1.54422 -3.609
-0.564278 0.456209 -3.59167
-0.24399 -0.409548 -1.06228
0.499821 0.37609 -3.6215
-1.94567 0.795531 -3.49283
-0.724046 0.671542 -3.52867
0.744071 1.05575 -3.6225
0.000207561 1.10521 -3.581
-0.885042 0.434965 -3.58943
1.99909 1.34309 -3.6575
1.51978 0.296328 -3.604
-1.48031 0.994072 -3.583
-0.984276 0.494495 -3.586
1.60638 0.752671 -2.74
-1.81747 0.971629 -3.565
0.221261 -0.107496 -3.57582
-1.39456 -0.14463 -3.30377
0.440346 0.105 -1.82045
1.56063 0.157088 -2.7408
0.217361 0.515865 -3.58856
-0.78378 0.935279 -3.44308
-1.80378 0.355124 -3.57356
0.136695 0.528255 -3.59
0.985855 1.37462 -3.63523
1.00372 0.0660778 -3.63375
-0.261748 1.39405 -3.56867
0.818236 1.31089 -3.62483
-0.180185 -0.414499 -1.12226
-1.14568 0.393382 -3.57533
-1.08202 1.51374 -3.5916
-0.219444 -0.416654 -1.4295
0.360375 -0.415628 -1.03528
-0.225438 -0.412534 -1.47614
-0.0421366 0.25785 -3.51617
0.780358 0.37652 -3.62325
1.45339 0.693204 -2.7579
-1.80245 0.275321 -3.5714
1.97863 1.39042 -3.65067
-0.695711 1.11329 -3.57725
-0.721728 -0.404894 -1.34196
-1.72334 0.312972 -3.57186
0.621821 0.415632 -3.626
-1.81418 -0.185496 -3.2955
-1.92268 0.984288 -3.5645
-1.79497 0.453272 -3.57733
-1.70235 -0.106109 -3.325
0.709504 -0.443783 -1.30475
0.802196 0.618347 -3.629
-0.664597 -0.390597 -1.36448
1.64291 0.192479 -3.50429
-1.36286 1.35363 -3.58239
-0.36497 -0.411154 -1.29333
-0.715354 0.689029 -3.47625
-1.97412 1.31632 -3.381
0.077256 -0.443313 -1.54417
0.923314 1.014 -3.61455
0.856618 1.39558 -3.59983
1.72238 1.21014 -3.62227
1.15979 1.41782 -3.6252
1.1768 -0.0245458 -3.62365
0.38491 1.24983 -3.60555
1.57569 0.650626 -3.56367
1.37771 0.436242 -3.62878
0.384086 -0.156871 -2.39065
-0.102246 -0.421833 -1.7151
1.71696 1.29639 -3.62517
0.926054 0.891883 -3.61442
1.4608 0.93718 -3.647
2.07833 -0.263675 -3.65122
1.65825 1.31562 -3.628
1.67628 0.00737551 -3.638
0.502137 1.50946 -3.63231
-1.97408 0.548282 -3.39168
1.57835 1.59322 -3.668
0.41671 0.614728 -3.60492
-0.722786 -0.40572 -1.26411
0.298125 -0.416411 -2.05315
-1.96216 1.27335 -3.307
1.7385 0.779918 -3.633
0.474968 0.892786 -3.60837
-0.662636 0.750147 -3.5926
-0.634198 -0.393657 -1.04817
0.240726 -0.311229 -2.27767
-1.97201 0.552989 -3.42
1.57501 -0.347107 -3.6305
1.56078 1.05142 -3.62833
0.13665 0.635191 -3.5957
1.1029 1.19349 -3.64233
1.12577 -0.0663267 -3.62312
-0.694956 0.756784 -3.57191
-0.364125 -0.414698 -1.04175
-0.224751 1.43455 -3.58556
1.75709 1.21164 -3.63383
-1.94895 0.697602 -3.53
0.0176414 0.257846 -3.527
-1.7412 -0.00453268 -3.32957
0.476364 -0.407944 -1.11347
-0.440268 -0.415546 -1.02719
0.658727 1.25373 -3.60325
1.47543 1.11337 -3.63233
1.50477 0.110853 -3.6241
-1.00323 0.195216 -3.57178
-1.00934 1.44716 -3.563
-0.2833 -0.423319 -1.6665
0.801832 -0.422743 -1.37571
1.28502 0.915304 -3.6511
-1.33736 1.43297 -3.58021
0.0555642 -0.446895 -1.5322
-0.562057 0.492713 -3.5868
-0.284356 1.15328 -3.5752
-0.344297 0.314704 -3.5665
-1.84264 0.125117 -3.4235
2.01913 1.45233 -3.6498
1.45239 0.112461 -2.71367
0.980935 0.633955 -3.6271
0.298693 1.20697 -3.58099
-0.0224692 0.256232 -3.5155
0.215542 -0.425379 -1.76092
-1.5835 -0.0665143 -3.32955
-0.577014 -0.414589 -1.19485
1.57626 0.693093 -3.59067
-1.04075 0.0941991 -3.38533
1.12206 0.629883 -3.64435
-1.02203 0.735979 -3.47333
1.45056 0.726176 -3.647
1.04478 0.835388 -3.63367
-0.643828 0.616446 -3.59327
-0.302774 -0.4135 -1.09254
0.920092 1.49564 -3.645
-0.58175 1.37301 -3.59636
-1.66343 -0.166156 -3.31142
0.203251 0.831119 -3.60171
1.47884 0.691679 -2.74475
-1.26303 1.17042 -3.58875
-1.8946 1.47281 -3.58382
0.926268 1.15159 -3.6265
-0.880295 1.41492 -3.5935
-1.38234 1.55365 -3.585
-1.21591 0.867169 -3.58003
1.34998 1.57318 -3.659
-1.96315 0.653708 -3.23573
-1.3014 0.81291 -3.57689
-0.201112 0.369509 -3.5821
-0.822971 0.291456 -3.55314
-0.706406 0.707564 -3.532
1.49579 0.590629 -3.648
-0.607697 -0.434126 -2.0525
0.699149 -0.419014 -1.27171
-1.71917 1.45367 -3.58341
0.654899 0.473024 -3.61589
-0.0387228 -0.18758 -1.8255
0.497533 0.0513892 -1.84538
-1.8173 0.547531 -3.59357
0.846178 0.57657 -3.6245
0.441601 -0.160128 -2.25291
-1.88282 0.493976 -3.57083
-1.86046 0.80983 -3.56484
1.59689 1.21012 -3.6344
-0.583443 0.412114 -3.58944
-0.442961 -0.323971 -1.7913
0.290978 0.662915 -3.562
-0.18437 1.45846 -3.6115
-1.97011 0.694764 -3.2212
-1.97395 1.01377 -3.3677
0.764278 0.391991 -3.62521
-1.02314 0.173517 -3.56992
0.442169 0.433266 -3.60338
-0.223019 -0.412133 -1.5845
1.81152 1.45447 -3.66867
-0.145529 -0.0136988 -1.84586
-1.42353 0.995092 -3.58729
-1.14283 0.970401 -3.57867
1.37855 1.33289 -3.6168
0.357047 -0.413592 -2.04245
-1.62504 1.35239 -3.57513
-0.661454 0.536541 -3.615
-1.40342 0.391846 -3.57333
-0.383607 0.907845 -3.59985
-1.95671 1.32966 -3.39079
0.0958168 1.29186 -3.5845
0.183029 -0.370988 -2.08666
-1.26281 0.693393 -3.57778
-0.602069 1.21211 -3.594
-0.325049 0.774314 -3.58809
0.335501 -0.410426 -1.26502
-0.816083 0.39276 -3.58438
-0.163334 -0.406314 -0.953434
-0.943556 0.295562 -3.57667
1.34215 0.85172 -3.64073
-0.24045 0.333646 -3.5645
1.66759 0.915622 -3.56075
0.343827 0.000720434 -3.563
-1.56406 0.914997 -3.58562
-1.97009 0.788422 -3.27689
-1.73419 0.014568 -3.34775
0.436116 -0.0854688 -1.86305
1.55762 0.272189 -3.56302
-0.123207 0.691646 -3.58567
1.73626 1.43538 -3.6462
-1.9428 1.62797 -3.57475
0.216406 -0.166113 -3.59044
0.197037 1.39314 -3.59733
-0.882825 0.414523 -3.58387
-0.298388 0.799339 -3.6045
-0.0829948 1.35166 -3.58933
0.398673 -0.408786 -1.78439
-1.4216 1.45463 -3.57462
1.45081 0.83386 -2.7465
-0.0586226 -0.415145 -1.4946
-1.38167 1.41182 -3.57467
0.0182624 -0.187147 -1.82471
-0.974975 0.174874 -3.5778
0.403349 1.53566 -3.60508
0.746141 1.39378 -3.63562
-1.00289 1.49734 -3.56762
-1.86346 1.27417 -3.57186
-1.90339 1.33604 -3.56875
-0.0829588 1.01535 -3.60614
-1.12186 1.51276 -3.58611
0.713228 -0.408431 -1.45456
-1.95719 0.229911 -3.3506
0.819066 1.11531 -3.607
1.11977 0.857017 -3.6522
1.41826 0.810107 -2.7055
1.92485 0.733979 -3.73158
0.499905 1.09641 -3.61457
-0.1441 -0.408536 -0.995
-1.97549 0.854795 -3.40261
1.05606 0.153461 -3.6375
1.03926 1.37447 -3.63817
1.69559 1.61482 -3.64138
-0.316138 1.4353 -3.60229
-0.603954 0.513553 -3.59218
-0.983421 0.574394 -3.58753
-0.961564 0.576724 -3.589
-0.774086 1.51382 -3.60405
-1.02917 1.03044 -3.493
1.16551 1.11438 -3.6465
-1.58342 -0.447445 -3.24875
-1.53938 1.15377 -3.58425
-1.18481 0.173147 -3.47267
0.183704 -0.409788 -2.25
-1.9618 0.576293 -3.4575
-1.23616 0.192186 -3.473
1.52068 1.11641 -3.64025
1.74008 1.44863 -3.6454
1.50131 0.712314 -2.731
0.343532 -0.4262 -2.24148
0.75683 0.595932 -3.62087
1.84322 1.5721 -3.643
-0.21787 0.732935 -3.57662
-0.638699 0.332568 -3.537
1.01935 1.2183 -3.64057
1.48748 1.57143 -3.63597
-0.743555 0.268191 -3.5305
0.543485 0.95646 -3.60411
1.57683 0.135988 -2.73654
-0.320731 1.47316 -3.59
-0.603618 0.63427 -3.5967
-0.981802 0.615488 -3.58733
-0.283408 -0.411473 -1.003
0.519193 0.813634 -3.62044
-0.0186721 -0.0287191 -1.80865
0.282396 -0.413502 -1.40518
-0.245839 0.975163 -3.587
-1.62336 0.729462 -3.58211
0.196449 -0.418471 -1.53929
1.71713 1.27002 -3.625
-1.97447 0.265327 -3.276
1.9407 1.24703 -3.716
-1.84439 -0.285501 -3.27211
-0.124134 1.45584 -3.6134
-0.245164 0.368632 -3.56417
-0.903615 0.896637 -3.44811
0.704981 -0.429798 -1.29
-1.02212 -0.18738 -3.33333
-0.24491 0.270397 -3.55227
-1.73918 0.593063 -3.58256
-1.95689 0.732577 -3.45962
0.0824994 0.912111 -3.58793
1.66504 0.551008 -3.55175
1.72241 1.02567 -3.6405
0.475184 0.874978 -3.61256
0.442515 1.21267 -3.608
0.462817 0.0522383 -3.61725
0.198705 0.927357 -3.60105
1.77595 0.935798 -3.60967
-0.280691 -0.415182 -1.45533
-1.52524 0.1927 -3.56363
-1.54184 1.45172 -3.57856
-1.62217 -0.411751 -3.25525
1.64442 1.36818 -3.6515
-1.09568 1.03395 -3.57671
-0.0155373 0.973985 -3.59454
-1.00529 0.0746586 -3.3615
-0.416966 0.294783 -3.5308
1.91132 1.05363 -3.704
-0.0970395 -0.425098 -1.822
-1.38525 1.58755 -3.583
-1.96279 0.613972 -3.284
-1.74322 0.236597 -3.57086
-1.439 -0.166576 -3.30338
-0.978439 1.18962 -3.55633
-0.120902 -0.0962013 -3.523
-1.88373 0.53384 -3.56338
0.544106 0.73217 -3.634
1.38276 0.0576656 -2.704
0.117258 0.352001 -3.57656
0.658089 0.295311 -3.60889
0.874844 0.990613 -3.58633
0.335241 0.0877663 -3.66153
-0.736996 0.698797 -3.44163
-1.58288 0.39612 -3.57589
-0.0841473 -0.408197 -1.0237
1.67922 0.172242 -3.56183
-0.143434 -0.410333 -1.05221
0.576684 0.395623 -3.61122
0.315315 -0.408107 -1.25288
-1.58441 0.354609 -3.57244
1.9458 1.65433 -3.64117
0.31557 -0.408736 -1.23274
-1.93703 0.893717 -3.53317
-1.68039 -0.309451 -3.2806
-0.13373 -0.413977 -2.17175
1.41471 0.772772 -2.6728
2.04623 1.62922 -3.65733
-0.37725 0.57213 -3.58891
-0.963804 -0.187117 -3.57167
1.02609 1.31587 -3.64688
-0.143693 -0.410477 -1.29387
-0.942211 0.972052 -3.4436
2.08483 1.49939 -3.683
-0.169593 0.267613 -3.523
1.19609 -0.223747 -3.623
-0.863356 1.01341 -3.4535
0.155436 0.472786 -3.59667
-1.6827 0.234758 -3.56989
-0.403017 1.25564 -3.59644
0.416629 0.259918 -3.5735
1.92997 0.6122 -3.71367
1.14292 1.20913 -3.64637
1.5752 0.339123 -2.72125
-0.844963 0.631665 -3.58789
-1.72644 -0.431095 -3.239
-1.5243 1.03501 -3.588
1.41729 1.61208 -3.635
1.43926 0.312852 -3.62487
-0.402581 -0.113551 -3.4865
-0.596548 1.33711 -3.5995
1.82366 0.774355 -3.72278
-0.376977 0.868538 -3.592
-1.2824 1.49276 -3.573
-1.95603 1.45179 -3.41307
-1.80321 0.955999 -3.5742
-1.62355 1.31489 -3.57163
1.86128 1.49221 -3.64322
-1.88349 1.17304 -3.5645
-1.30332 0.492924 -3.57444
-0.523781 0.474974 -3.59389
-1.24081 1.09259 -3.58425
-0.185561 1.43511 -3.58987
-0.081438 0.855132 -3.60056
0.0774058 -0.430844 -1.43062
-0.244178 -0.197323 -3.5945
1.69175 1.6308 -3.63833
1.11548 0.874994 -3.64944
0.215513 1.53412 -3.62263
-0.676716 -0.393321 -1.41631
-0.559575 1.35278 -3.59357
0.163771 -0.148018 -3.5785
0.460761 0.728434 -3.60044
0.297519 -0.147978 -3.59856
0.284683 1.16921 -3.59215
1.49643 0.189134 -2.7239
0.154813 -0.407062 -1.01194
0.138429 0.933923 -3.60305
0.417337 -0.415211 -1.459
1.70379 1.49425 -3.634
0.819647 0.750684 -3.59825
1.35621 0.67423 -3.634
-0.443756 -0.410111 -1.77356
0.215583 -0.415299 -1.35656
-0.783876 1.05564 -3.46929
-1.45986 -0.406559 -3.24491
1.83955 1.19195 -3.6645
1.27575 0.876078 -3.656
-1.98706 1.55499 -3.51333
0.858657 0.876059 -3.6006
0.307113 0.353783 -3.56307
-1.43959 -0.0680583 -3.32432
-0.202046 -0.410984 -1.3137
-1.62408 1.17636 -3.5795
-0.20386 -0.411197 -1.14406
-0.4811 1.49675 -3.60529
-0.347779 0.665569 -3.608
1.35623 0.973451 -3.64944
0.336365 -0.421276 -1.79437
-1.52423 0.151973 -3.54333
0.551268 1.54553 -3.6465
0.440846 0.63987 -3.6195
-0.602042 -0.394326 -1.47104
0.0825597 -0.438192 -1.50434
1.81699 -0.108079 -3.64225
-1.78576 0.87418 -3.57157
-1.95556 0.850522 -3.5075
-1.52091 0.631518 -3.585
1.15869 0.432106 -3.63378
0.0160215 1.03052 -3.6025
-0.282909 1.0533 -3.58471
1.12694 0.99638 -3.645
-0.13895 -0.416313 -1.40966
-0.601243 0.957041 -3.58989
-0.122654 1.41474 -3.59673
-0.706726 0.851827 -3.54933
-0.54544 1.23343 -3.59557
0.27986 0.0820508 -1.889
1.51412 1.37078 -3.613
1.52575 0.11151 -3.61892
-0.400941 -0.403477 -1.78515
0.35657 1.13383 -3.599
1.18339 1.05203 -3.64164
1.2012 -0.204568 -3.62375
1.82283 0.729394 -3.73225
0.255365 0.514937 -3.5896
-1.46417 1.53257 -3.5775
-1.43642 0.228363 -3.56475
0.743224 0.696254 -3.627
0.176967 -0.405298 -1.23275
-0.422492 1.2137 -3.5937
0.416219 -0.415063 -1.05385
-0.46043 1.29425 -3.591
-0.0824408 -0.420304 -1.44931
-1.1224 0.793435 -3.57867
0.375746 -0.420441 -1.46994
-0.275892 0.537581 -3.58488
-0.0375399 0.796822 -3.6145
-1.56298 1.19343 -3.57822
-1.5227 0.593112 -3.57778
-1.96487 1.07349 -3.23478
1.90368 -0.245801 -3.63631
1.15494 0.254395 -3.62891
1.13825 1.50554 -3.64088
0.482325 0.561816 -3.6285
-1.64326 1.31598 -3.57333
-0.918477 -0.0896077 -3.561
0.0963152 0.829187 -3.58186
1.41848 0.794288 -2.705
-0.264884 0.568068 -3.56
0.0159956 1.07468 -3.58975
0.155509 0.769165 -3.59483
0.0156653 0.452351 -3.5854
1.27805 1.49222 -3.62
0.142191 0.451535 -3.5775
1.60533 0.246783 -3.573
0.514666 0.354279 -3.62367
0.15561 -0.415448 -1.5685
-1.86118 -0.145815 -3.30213
1.59518 1.49356 -3.65557
0.359436 -0.428942 -2.24243
-0.223008 -0.414994 -1.53321
-0.52127 -0.415604 -1.00463
-1.26558 1.37339 -3.58875
0.43602 -0.306132 -1.79624
0.421087 -0.143239 -1.86493
0.0839637 -0.0278346 -1.82441
1.46379 -0.101721 -3.62866
1.44649 1.11582 -3.62688
-1.97242 0.453369 -3.43433
-0.515464 0.532177 -3.59485
-0.182795 1.19384 -3.59244
1.2146 -0.0635184 -3.63067
-0.0643443 -0.408206 -1.21014
0.780446 1.55177 -3.64825
1.82451 0.796612 -3.71733
1.40068 0.275777 -2.718
0.424806 0.668179 -3.5932
0.177973 -0.424578 -2.2335
-1.62519 0.331789 -3.5755
1.83618 1.03735 -3.746
0.156033 1.27248 -3.61329
-1.96922 0.257154 -3.342
-0.910455 0.699105 -3.431
-1.02363 0.416241 -3.579
1.60056 0.967982 -3.57808
2.06628 1.42663 -3.67125
0.314128 -0.416563 -1.36434
0.617681 1.53572 -3.6336
1.53668 0.295041 -3.56432
-1.80467 1.03344 -3.56944
1.5082 1.36836 -3.6365
0.0661959 0.824294 -3.607
1.8986 1.22803 -3.69325
0.419536 -0.129016 -2.3862
-0.979826 0.35322 -3.58125
0.401278 -0.152566 -1.82375
1.57979 -0.0693411 -3.64383
-0.743447 0.37515 -3.58191
0.17655 -0.406754 -1.01242
0.704975 0.456854 -3.62963
0.741441 0.809592 -3.62505
1.01674 0.653359 -3.60987
-0.62455 0.834022 -3.59211
0.234954 1.33889 -3.607
-0.20133 0.855967 -3.59589
0.51724 0.254682 -3.57975
0.475828 -0.413063 -1.34086
0.13548 -0.149683 -1.88775
1.46069 0.896801 -2.73375
0.255432 1.33294 -3.5866
0.218645 0.43528 -3.5746
0.864411 0.39095 -3.62525
1.92276 1.1305 -3.72508
1.29892 0.336016 -3.61933
1.48105 0.313718 -2.72615
-1.80368 1.37446 -3.58338
-1.95654 0.756134 -3.506
-0.581012 0.87285 -3.59511
2.03323 1.66473 -3.692
0.435553 -0.406393 -0.932
1.54384 0.891611 -3.611
-0.084672 0.818348 -3.6085
-1.18236 0.216224 -3.5688
-1.19847 1.47639 -3.582
-0.214846 0.625945 -3.56984
-0.343344 1.15382 -3.58722
0.297681 -0.419911 -1.43591
-1.95782 1.31042 -3.24437
0.0562371 0.692031 -3.58789
1.15626 0.314574 -3.62038
1.1126 0.412881 -3.62614
-0.302514 0.952634 -3.5887
-1.36231 1.09402 -3.5872
-0.174482 0.595171 -3.60325
1.12269 0.35685 -3.6305
-1.28281 0.693802 -3.57656
0.518282 0.651179 -3.63133
0.765473 1.25381 -3.63225
0.36317 0.832665 -3.61275
-0.239469 1.13107 -3.56425
-0.73852 1.04662 -3.4664
0.616466 1.09369 -3.61636
-1.51633 0.876983 -3.58133
1.15713 0.413332 -3.63262
0.485119 0.415164 -3.62396
1.66763 1.25738 -3.62934
1.39879 1.03233 -3.64516
0.216413 0.949828 -3.59467
-0.298963 0.994101 -3.5776
1.08935 0.749781 -3.645
-0.720225 1.09701 -3.54366
0.600807 0.831331 -3.60388
0.423805 0.753875 -3.60027
1.48738 0.892369 -3.60625
-0.0393167 -0.205662 -1.82283
-0.710237 1.07459 -3.52309
0.376099 -0.404271 -2.2144
-0.303501 1.13369 -3.57978
-0.28199 -0.164646 -3.57375
-1.96454 0.673331 -3.26334
-0.361431 0.928082 -3.58263
-1.24495 0.575625 -3.57611
1.14297 0.552938 -3.63962
-1.18392 0.152669 -3.5005
0.340551 0.776469 -3.60268
-1.56164 -0.345537 -3.26943
-0.422652 -0.422767 -1.72677
0.0158384 0.795099 -3.5925
1.43521 1.13448 -3.62242
-0.0349514 -0.432735 -1.50676
-0.44343 0.376077 -3.595
-1.95788 0.574311 -3.49294
0.176891 -0.408286 -2.21283
-1.03811 0.590965 -3.58357
1.15605 1.29588 -3.6314
1.17547 0.0939024 -3.63583
0.418713 -0.413056 -1.4027
-0.115039 1.34576 -3.591
0.217307 -0.415284 -1.46835
0.157589 -0.293804 -2.286
0.415164 -0.410594 -1.17246
1.63769 0.775006 -2.76525
1.17589 0.953034 -3.6526
-0.648302 0.334347 -3.55533
-1.34224 0.915118 -3.58274
-1.82303 1.1319 -3.56983
-1.32375 1.15469 -3.59089
-0.683376 -0.393456 -1.3574
-1.47518 0.412125 -3.57072
0.714134 0.85518 -3.61844
-1.02033 1.41291 -3.56425
-1.97134 0.395372 -3.32328
0.311128 1.08721 -3.57267
0.946749 1.19233 -3.6388
0.22102 0.113698 -1.82478
-0.443336 -0.405035 -1.48477
-0.91592 0.206458 -3.561
0.22285 -0.415224 -1.63125
-0.423608 0.774787 -3.60222
0.420065 -0.413408 -1.25164
1.82977 0.0142598 -3.68175
1.80624 1.04896 -3.66375
-0.155886 0.319165 -3.57767
1.4257 1.13821 -3.621
0.575618 0.97572 -3.61509
-0.235576 0.529172 -3.56569
-1.66264 0.951285 -3.57678
0.735833 1.45278 -3.6271
-0.0749154 -0.167839 -1.83687
2.10585 -0.249771 -3.64419
0.174583 1.19177 -3.59214
0.176111 0.515079 -3.58845
1.47636 0.156099 -2.7355
1.90431 0.610315 -3.756
0.483774 0.26935 -3.58838
-1.82356 -0.0668187 -3.31587
-1.719 0.893536 -3.57944
-1.58126 1.45548 -3.57313
0.241551 0.0833684 -1.8701
1.59634 0.476105 -2.77175
-0.364494 1.37424 -3.59656
-0.441821 -0.367118 -1.78327
-1.66269 -0.406126 -3.2646
-0.498946 0.853264 -3.60326
0.195777 0.112004 -1.82502
1.72187 1.17536 -3.62117
-1.48285 0.473111 -3.5758
1.46172 0.355026 -2.72377
1.62951 0.704846 -3.564
0.382757 0.492652 -3.60412
-1.55709 -0.0914521 -3.32515
-1.12478 0.317757 -3.57643
1.52949 0.4009 -2.736
-1.7003 0.414405 -3.5825
-0.32365 0.68953 -3.58162
0.556876 -0.405595 -1.10372
-1.72234 0.994883 -3.57311
2.11056 1.45476 -3.635
0.406587 -0.408415 -2.18228
-0.403155 1.27529 -3.59433
-1.54197 1.49455 -3.5745
-1.52306 0.232131 -3.56391
-1.91786 1.49408 -3.583
0.37782 -0.412206 -2.0694
0.276797 -0.00234803 -3.57267
-1.58263 0.93564 -3.58667
1.45847 0.81309 -2.74392
1.8787 1.37345 -3.63167
1.7935 1.48073 -3.648
-0.254591 0.452122 -3.55417
1.33701 0.53257 -3.62738
2.12121 1.63679 -3.67857
1.32479 1.0953 -3.65126
0.5777 0.277092 -3.60129
-1.3045 0.73333 -3.57775
0.379735 -0.0483659 -1.8827
1.91061 0.556607 -3.7185
1.66196 0.251932 -3.5135
-0.855571 0.754389 -3.44468
0.262189 0.824374 -3.575
1.40926 0.811077 -2.681
-1.92293 0.614564 -3.5433
0.5062 -0.145337 -3.60954
-0.204983 1.53099 -3.59057
0.362255 1.09115 -3.58851
-1.60317 0.272386 -3.56889
1.91172 0.613675 -3.8015
-1.3167 1.29175 -3.58817
-1.44486 0.955737 -3.58789
0.0829634 0.573522 -3.5885
-1.97412 0.527181 -3.3105
0.483507 0.933016 -3.59687
-1.42079 1.01236 -3.58669
0.274387 1.25408 -3.58867
-0.358989 0.0750667 -3.596
-0.372276 1.33284 -3.60142
-0.163697 -0.408093 -1.00444
-1.50129 1.07158 -3.58475
1.5357 0.0136948 -3.59267
-0.642891 1.27451 -3.59222
-0.603649 0.672876 -3.60053
-0.323849 0.954334 -3.58638
1.46023 0.371681 -3.63089
-1.89925 -0.129139 -3.321
0.437461 1.28849 -3.60417
-1.31862 1.53992 -3.584
-1.49321 0.973769 -3.582
0.576876 -0.395345 -1.02225
0.556064 0.915818 -3.61233
-1.6362 -0.205323 -3.30673
0.0743668 0.811724 -3.6092
-1.08453 1.33425 -3.588
0.395738 1.27095 -3.5942
-0.0980098 1.38796 -3.58417
-0.370862 -0.0761696 -2.331
-0.401301 1.17379 -3.59511
-0.843827 0.332201 -3.57733
1.47406 0.51135 -2.746
1.63984 1.61326 -3.6675
-0.843964 1.15169 -3.57457
-0.155606 0.475251 -3.574
1.31808 -0.186646 -3.63
1.14306 1.07646 -3.65675
0.137843 0.812988 -3.6077
-0.562417 0.554155 -3.59217
0.0354713 0.328966 -3.56315
-1.22163 1.43346 -3.58587
1.03678 1.13551 -3.6493
0.743864 1.13436 -3.62345
0.797572 1.13558 -3.63156
-1.48322 0.556175 -3.5776
0.7425 -0.416121 -1.37154
-0.407905 0.393389 -3.6035
-0.0239604 0.394225 -3.58755
-0.48328 1.1144 -3.59311
-0.13703 1.0911 -3.58231
-0.0233343 -0.43975 -1.77129
0.118268 -0.153596 -1.8617
-1.945 0.455912 -3.5281
-0.18006 -0.41511 -2.08582
0.974796 0.871544 -3.631
-0.418592 -0.12518 -1.86369
-0.01512 1.19335 -3.60097
-0.301379 -0.417751 -1.54598
-1.01446 0.0725372 -3.55525
1.5494 0.435238 -2.73006
-0.794282 0.792415 -3.432
-1.58531 -0.44241 -3.1906
-1.22237 0.324366 -3.499
-1.39672 0.830946 -3.58315
-1.95195 0.975526 -3.48984
0.61817 0.674 -3.61155
0.23567 -0.413789 -2.184
-0.901283 0.753307 -3.4355
-0.943933 0.79413 -3.43527
-0.240722 1.33067 -3.566
-0.224976 0.0332128 -3.57379
-1.56393 -0.43316 -3.21367
0.295822 -0.105052 -3.58737
1.8884 0.956649 -3.69067
0.377654 -0.40838 -1.78912
-0.341551 0.0547897 -2.79392
0.418071 0.912735 -3.61022
0.420207 0.572264 -3.61171
-1.88422 0.467896 -3.585
0.495777 0.0314793 -1.86504
-0.364093 0.855228 -3.59122
0.238146 -0.42197 -1.81
-0.339992 0.296564 -3.5535
-1.9243 1.29758 -3.514
1.12416 1.34794 -3.651
1.63884 0.906996 -2.75133
2.02081 1.34868 -3.64317
-1.10343 1.29421 -3.59011
1.3982 1.53477 -3.64267
1.41613 0.216158 -3.64811
-0.104065 0.697244 -3.61145
1.35445 1.56153 -3.631
-0.4614 1.47207 -3.60363
1.85773 0.632518 -3.77567
-0.0630353 1.03036 -3.60191
1.02287 0.521894 -3.6475
1.16533 1.58826 -3.621
0.784755 0.772785 -3.62324
-0.560834 0.814195 -3.59633
0.198276 -0.14883 -1.893
-1.45589 0.452574 -3.57417
0.482002 0.0864962 -1.83472
0.929156 0.672109 -3.62333
-1.95715 0.690379 -3.5115
-0.701884 0.933002 -3.5125
-1.06038 1.51499 -3.58606
0.23738 0.696825 -3.60487
-1.94272 1.37213 -3.55175
-0.383019 1.21469 -3.59744
1.31778 -0.167221 -3.62978
1.56103 0.410677 -2.756
-0.515635 0.914592 -3.59725
-0.693547 1.01478 -3.57433
-0.162122 -0.0450577 -1.885
0.375544 1.13347 -3.59656
-0.875703 0.714822 -3.45007
-0.0155267 0.995408 -3.58883
0.524944 0.914125 -3.61763
1.43536 0.428281 -2.6975
2.03602 1.4511 -3.64534
-1.89535 -0.308072 -3.2933
-0.583741 0.653963 -3.59789
0.399426 -0.0115668 -3.56384
-1.66132 -0.28991 -3.28582
-0.0439975 -0.152132 -1.867
0.215445 1.54702 -3.61833
0.0551759 -0.366001 -1.81574
0.343387 -0.412555 -1.0537
-1.65806 -0.211179 -3.302
1.45532 0.171204 -2.74716
0.501016 -0.400632 -1.81775
1.55628 0.0947679 -2.7353
-1.90585 -0.165274 -3.29637
-0.813138 0.792984 -3.44609
1.51629 0.43481 -3.5982
-0.24062 0.00729276 -3.56484
-0.263517 1.3099 -3.57111
1.78256 1.32966 -3.63708
0.319515 0.898031 -3.601
0.336471 -0.411706 -0.983662
-1.52446 0.0128163 -3.338
-1.58258 0.57296 -3.57633
-1.98249 0.415917 -3.34284
0.240522 -0.282046 -2.25925
-0.480864 1.27211 -3.59629
-0.382889 0.654659 -3.59438
1.64346 -0.189159 -3.63985
1.61699 1.0695 -3.626
0.261892 0.589328 -3.57466
0.556889 -0.403801 -0.974571
-1.76588 1.21229 -3.56825
-0.190896 0.506371 -3.567
0.598734 1.514 -3.63611
1.47769 0.893504 -2.74559
-1.94041 0.51554 -3.54286
0.235852 -0.406353 -1.03308
0.361841 -0.38664 -2.141
0.595021 -0.404256 -1.10433
-1.7999 0.148231 -3.55129
0.425647 0.534808 -3.5938
-0.102962 -0.408224 -1.01259
-1.47744 -0.414836 -3.266
-1.71506 -0.204007 -3.30439
1.58927 1.51532 -3.636
-0.303523 -0.407434 -1.15341
2.0594 1.58844 -3.685
-1.01429 1.053 -3.47066
-0.664296 0.931347 -3.58589
-1.32501 1.09306 -3.5883
1.93102 -0.103886 -3.666
0.625306 -0.402204 -1.51143
-1.66538 -0.384246 -3.26889
1.37591 0.0317828 -2.68417
0.320493 1.05131 -3.58204
0.0936555 -0.442055 -1.673
-1.97588 1.31322 -3.332
1.55797 0.15626 -3.5895
1.35615 0.0721495 -3.64184
1.34041 1.33141 -3.62566
0.116489 0.811828 -3.60875
0.514467 0.433606 -3.61744
-1.63738 0.754102 -3.58273
-0.0787012 -0.154745 -1.8655
-0.118415 1.17154 -3.579
-1.82301 0.735425 -3.56913
0.772598 1.29722 -3.644
-0.0818051 0.355334 -3.58429
-0.404148 0.435083 -3.5953
-1.80322 0.876574 -3.56567
-0.882316 1.01317 -3.45289
1.57917 1.23201 -3.639
-0.218167 0.851095 -3.57391
1.54117 0.268675 -2.69433
0.494338 0.913413 -3.60043
1.59729 1.27581 -3.66033
1.61912 -0.0277794 -3.64422
1.78042 1.11879 -3.584
2.21426 1.34862 -3.6455
-1.89521 0.170216 -3.55505
1.25742 0.0136569 -3.63611
0.437093 0.574334 -3.6095
0.0368393 -0.00392772 -1.8664
1.60242 0.488005 -3.575
-0.400242 -0.414956 -1.51213
0.274322 0.0840207 -1.935
0.656276 -0.405098 -1.48201
-0.502823 1.37487 -3.59622
0.446449 0.757669 -3.61965
-0.448275 -0.396046 -1.452
-1.26229 1.29657 -3.59067
-1.98764 1.4044 -3.365
-0.525845 0.596143 -3.60167
0.516397 1.07399 -3.61983
0.396842 -0.424916 -1.7405
0.920501 0.418617 -3.627
1.39453 -0.226296 -3.62822
0.299676 1.09676 -3.59288
-1.64262 0.794184 -3.5839
1.13923 0.391872 -3.63286
-0.361194 -0.425092 -1.74242
1.46886 0.292308 -3.62675
1.43744 1.51171 -3.62933
-1.64059 0.152612 -3.56022
-0.863602 0.593617 -3.58767
0.080597 1.00875 -3.6081
0.51865 0.831995 -3.61642
-1.91559 -0.127147 -3.25689
0.525054 0.296996 -3.62772
-1.42346 0.751284 -3.57813
1.90483 1.59575 -3.65075
-0.64485 0.892725 -3.59067
-0.624594 -0.402308 -1.073
0.577556 1.0092 -3.6088
1.49199 0.748539 -3.615
1.5419 0.514282 -3.626
1.02231 0.714661 -3.62494
-0.241466 0.614393 -3.57478
0.914161 0.408248 -3.611
-0.484774 1.2567 -3.59678
-1.91911 -0.290048 -3.31757
0.82451 1.03265 -3.60752
0.585218 0.753866 -3.62343
-1.70217 0.553533 -3.588
-0.404683 -0.107054 -2.313
0.58512 -0.410516 -1.42819
-1.86294 1.4511 -3.5838
-0.102708 1.25292 -3.59775
-0.999892 0.991836 -3.458
0.0192893 0.0697657 -1.86294
-1.13682 0.931302 -3.58221
-0.893153 0.793775 -3.44566
-0.541551 1.09495 -3.59325
1.50129 0.289671 -2.70452
1.17826 0.452758 -3.64
0.863166 0.931701 -3.604
-0.0835705 -0.0156006 -1.8586
0.196134 1.03443 -3.59608
0.719591 1.01559 -3.6195
-0.404447 0.474015 -3.59522
-1.22131 1.16862 -3.60417
-1.0945 0.954817 -3.57279
0.637381 0.296051 -3.61255
-0.199972 -0.41689 -1.7632
1.83775 1.55526 -3.63533
-0.105445 -0.28776 -1.84844
1.40118 1.56092 -3.621
0.35505 -0.415029 -2.161
1.00585 0.469191 -3.61272
1.42477 0.932292 -3.63708
-0.403367 -0.411466 -1.49354
-1.22711 -0.43436 -3.332
1.62025 0.353748 -3.53
0.218844 0.0807637 -1.85133
1.53559 0.711214 -2.75033
-0.338004 0.0565978 -3.56044
1.83702 -0.285264 -3.63714
-1.54279 1.18999 -3.581
-1.8026 1.39505 -3.58207
0.455722 -0.404105 -0.913537
0.803224 1.47178 -3.61946
-1.80446 1.51299 -3.586
1.12133 0.393267 -3.62459
1.57891 0.475929 -3.5795
1.00659 0.329464 -3.59458
-1.9873 0.499297 -3.262
-1.36193 0.213144 -3.56346
-1.37771 1.51025 -3.58146
-1.97651 0.714672 -3.40283
-0.482684 1.07489 -3.595
-0.202596 0.0850018 -3.62967
1.55901 1.17361 -3.641
0.204829 0.275921 -3.55658
1.60622 0.248484 -3.46923
-1.8775 -0.3164 -3.266
-1.7034 1.43585 -3.58188
-0.365144 0.392674 -3.58312
-1.93575 0.87719 -3.524
0.35888 1.53375 -3.61478
0.716324 0.47409 -3.62514
1.55494 0.689727 -2.75217
-1.74406 1.61479 -3.58691
1.51788 0.57254 -3.63311
-1.95348 0.15282 -3.404
0.68303 0.2711 -3.602
0.515802 -0.410151 -1.23159
-0.784619 0.515945 -3.5945
0.198837 0.435377 -3.59689
-0.462348 1.48793 -3.60128
-1.94321 1.23745 -3.46375
-1.95392 0.152026 -3.33182
-1.97431 1.41044 -3.33284
-0.341702 1.09331 -3.58758
-0.32024 -0.202129 -3.59425
-1.43942 0.148743 -3.5225
0.484597 -0.325705 -1.78016
0.358284 -0.423731 -1.6279
0.443728 0.849452 -3.59992
-0.185298 0.396567 -3.58245
0.884767 0.314615 -3.60527
0.858556 1.56609 -3.61267
0.964247 1.03357 -3.63448
-0.76035 0.28976 -3.5625
0.401982 -0.00764419 -2.344
1.64074 1.53153 -3.668
2.22474 1.3319 -3.67138
0.136247 -0.407695 -1.17156
1.50189 0.174201 -3.63275
-1.31821 -0.408051 -3.34267
-0.477371 -0.422793 -1.76169
1.60005 0.89235 -3.58053
-0.575284 0.733704 -3.59584
-1.33629 1.27851 -3.5805
1.55858 0.69417 -2.73317
-1.43954 1.46767 -3.57984
-1.76512 1.11364 -3.56822
-1.97476 0.532026 -3.33183
-1.52227 -0.124889 -3.3165
-1.97772 0.52496 -3.411
2.0165 1.48825 -3.637
0.3154 -0.12601 -3.58975
1.57791 0.475111 -2.7528
0.658123 1.51445 -3.63222
-1.97531 1.35173 -3.37092
-1.18279 0.934703 -3.58567
-0.0839992 1.31559 -3.60071
-0.679453 1.47385 -3.597
1.41751 0.393497 -3.62791
-1.97344 1.00823 -3.28066
0.0793388 -0.347988 -1.8202
-0.977584 0.968534 -3.44567
1.14457 1.42584 -3.646
1.47811 0.471754 -3.63122
-0.379957 0.833084 -3.601
0.364347 -0.414325 -2.09425
-0.543941 0.532542 -3.59733
-0.582775 -0.409392 -1.12314
0.438149 0.770543 -3.61867
1.09807 0.62765 -3.64171
0.0166747 0.831292 -3.58436
0.717749 0.33444 -3.61744
1.60941 -0.355473 -3.643
-1.93622 0.13257 -3.46859
0.943187 1.27523 -3.64166
1.83354 1.21194 -3.67275
-1.83302 0.378765 -3.58875
-0.0637052 -0.410333 -1.10918
0.841071 0.929227 -3.61087
-1.24343 1.41256 -3.58492
1.3552 -0.285233 -3.63025
-1.57783 0.90937 -3.58167
1.27598 0.63275 -3.64446
-0.0551209 -0.324625 -1.84444
1.58475 0.194556 -2.71283
-1.42221 0.153435 -3.54227
-0.454204 1.54531 -3.602
0.985904 1.43652 -3.62958
-1.95909 1.21172 -3.466
0.122137 -0.152159 -1.968
1.74647 1.04954 -3.5925
1.4825 0.814806 -3.637
-1.81691 0.108821 -3.4286
-1.97245 0.394448 -3.35575
-0.0296459 0.00204645 -1.9245
-1.05937 0.833539 -3.534
-1.44487 -0.38576 -3.25242
-1.95327 1.25117 -3.39604
1.42608 0.692605 -2.72317
-1.63827 0.937351 -3.58075
0.315817 -0.415218 -2.05763
-0.763685 0.974975 -3.44845
-0.441415 -0.151448 -1.87222
1.46652 1.22513 -3.63117
-0.303805 1.49546 -3.59344
0.335246 0.993529 -3.59756
1.63618 1.20809 -3.63537
1.47791 1.05402 -3.636
1.07835 0.930487 -3.63857
1.69787 1.50897 -3.63025
0.336587 0.532173 -3.601
1.27705 0.512957 -3.63389
-0.0603921 -0.0329422 -1.85949
-1.19246 0.208214 -3.51
0.882673 0.536403 -3.60367
-1.49643 0.696049 -3.58328
1.54791 0.235825 -2.6967
-0.644098 1.15283 -3.589
-0.745354 0.67101 -3.50975
-1.95375 0.586491 -3.531
1.60719 0.348761 -3.5625
0.397892 0.815308 -3.61289
0.696553 -0.414984 -1.28629
-1.56363 0.5525 -3.57533
-1.01137 0.0894565 -3.361
2.01949 -0.248282 -3.6825
-0.60252 1.23226 -3.59222
-0.123817 -0.411787 -1.09353
-0.363104 -0.414272 -1.00712
0.597675 0.87392 -3.61644
1.58947 0.374069 -2.74567
-0.624667 1.31536 -3.59344
0.135633 -0.407669 -1.01248
0.115575 0.829709 -3.60464
-0.653757 0.312305 -3.56888
0.479596 -0.387211 -1.82375
-1.82356 1.11031 -3.57071
0.659985 -0.41144 -1.35783
1.93585 0.699241 -3.733
0.562647 1.08744 -3.62757
-1.0021 -0.00553394 -3.571
-1.01188 1.25374 -3.56259
-1.74203 1.19521 -3.57
-0.125793 1.17459 -3.6004
-0.899755 1.49018 -3.634
-0.964804 0.512211 -3.58537
-1.25665 0.89142 -3.58375
1.42322 0.135029 -2.71175
1.58685 0.211514 -3.52583
-0.959112 1.19547 -3.57425
1.55614 -0.328649 -3.60441
0.549758 1.53558 -3.64667
0.838522 0.655093 -3.61256
1.98792 1.34484 -3.642
1.51829 0.0536949 -2.74
1.5308 0.334425 -2.6895
-0.556676 0.691569 -3.59536
-0.197292 -0.414768 -1.6205
0.458295 -0.410833 -1.39305
0.526653 0.984178 -3.6
-0.642709 1.29344 -3.58778
1.97939 1.31835 -3.7005
1.38241 0.274757 -3.6201
-1.38268 0.552566 -3.57309
0.377842 1.54433 -3.6045
-1.62381 -0.326471 -3.27922
1.04138 0.387524 -3.60736
-0.662697 0.853321 -3.58767
-1.95657 0.27215 -3.49071
0.797306 0.793463 -3.61555
-0.940966 0.554477 -3.58764
1.66106 0.474101 -3.52361
-0.582448 0.614911 -3.59333
-0.902586 0.851985 -3.44627
1.66343 1.08887 -3.59
-1.95416 1.45095 -3.34917
-1.93058 0.0495787 -3.36235
-0.939461 0.751158 -3.44525
-1.31843 -0.445854 -3.2615
-1.97362 0.875262 -3.4008
0.584135 1.51287 -3.63975
-0.475282 -0.383454 -1.7712
0.961201 1.51423 -3.641
-1.95954 -0.292902 -3.24167
0.661911 0.513315 -3.6304
0.243316 0.052248 -3.59421
-1.89924 0.815569 -3.56079
1.67563 1.45371 -3.64446
1.6525 1.00754 -3.545
1.51838 -0.350734 -3.60358
1.05597 0.414141 -3.6114
1.21958 0.489873 -3.64
-1.40517 -0.207679 -3.2926
0.818532 0.733664 -3.60241
1.61448 0.574245 -2.7142
0.318861 -0.420435 -1.5544
-1.38523 -0.0651578 -3.3226
1.0572 -0.00675715 -3.62322
1.03723 1.21201 -3.64178
-0.902218 0.204763 -3.533
1.4264 0.473581 -2.7126
1.56514 0.334363 -2.73091
-1.91494 -0.0803909 -3.353
-0.103254 1.51444 -3.594
2.01716 1.48413 -3.677
-0.50385 -0.410448 -1.11312
1.81647 1.63536 -3.6265
-1.883 0.911914 -3.56129
0.356864 -0.4213 -1.57554
2.10522 1.3366 -3.67042
1.88509 0.752907 -3.791
0.016106 -0.00418198 -1.86549
1.59657 0.432844 -2.76267
0.154324 0.373822 -3.577
0.097773 -0.408844 -1.03243
-0.385232 0.556091 -3.59187
1.15862 1.15524 -3.64691
0.738067 0.411968 -3.62856
0.540859 -0.394694 -1.42237
-1.44273 0.693334 -3.57744
0.136211 0.769349 -3.61878
-0.343357 1.23078 -3.58373
-0.315299 0.0745434 -2.35
-0.715424 -0.394792 -1.33057
-0.27484 0.856473 -3.59183
-1.80305 1.31391 -3.5756
-0.964493 0.492719 -3.5873
1.11722 0.255119 -3.62324
1.10923 1.51159 -3.6265
1.21702 1.31266 -3.62475
1.23656 0.0136415 -3.63556
-1.78429 0.176523 -3.56323
0.198109 1.22684 -3.60094
-0.363323 1.21292 -3.59322
-0.236132 -0.0280931 -1.85131
-1.18504 0.918307 -3.58629
1.34111 0.134506 -3.6452
1.32113 0.850441 -3.64634
1.9473 1.50792 -3.6665
1.539 0.939008 -2.71233
-1.72337 0.256125 -3.57471
1.60928 1.00185 -3.547
1.48028 0.173243 -3.64538
-0.643997 0.834686 -3.59311
-0.423856 1.33121 -3.59511
-1.75582 0.489785 -3.58178
0.176263 -0.425677 -1.81606
0.797122 1.375 -3.63983
-0.377838 -0.153365 -2.27284
1.93246 0.472932 -3.811
0.137002 1.53381 -3.60246
0.255578 1.13233 -3.58478
0.27671 -0.126978 -3.59371
0.0422501 1.53074 -3.59175
-1.30365 1.25397 -3.58885
-0.603313 0.596474 -3.59209
-0.321473 1.51262 -3.58791
0.214436 -0.410441 -1.3112
1.02536 1.46903 -3.61383
2.06059 1.63401 -3.68475
0.755667 0.876812 -3.61933
1.46653 -0.323749 -3.612
1.62106 1.39565 -3.64147
-0.162237 1.49352 -3.60417
-1.3546 1.05358 -3.5902
1.78219 0.910475 -3.61284
-0.844751 1.39268 -3.59313
-1.97297 1.13505 -3.43158
-1.94491 -0.305462 -3.2962
0.441954 1.53492 -3.59433
0.259173 0.292187 -3.56627
-1.9603 1.11513 -3.4335
-1.46072 0.493689 -3.5737
0.377106 0.0756902 -2.31775
-0.561608 -0.407815 -1.29344
-1.97491 0.570582 -3.31167
0.21772 0.834282 -3.5995
-1.66306 0.911803 -3.58148
1.2782 0.956272 -3.65011
1.29652 -0.186333 -3.62744
1.27639 1.1121 -3.63987
1.43966 -0.385771 -3.604
-0.221568 1.41866 -3.5885
-1.94417 1.48616 -3.222
-1.40357 0.432866 -3.57264
1.62057 0.715799 -2.7565
0.499156 -0.413054 -1.35051
1.82308 1.49597 -3.66
1.82583 1.01162 -3.70775
-0.996414 0.372429 -3.581
0.275334 -0.407335 -0.9938
0.335991 1.09397 -3.59008
-1.38225 1.13177 -3.59233
-1.38205 1.17167 -3.59
-1.65713 0.657046 -3.57825
1.1232 0.756706 -3.65
-0.122695 -0.107493 -3.54558
1.91812 0.904457 -3.739
-0.904512 1.27585 -3.59044
-0.105517 -0.403154 -2.20167
0.0959488 -0.405434 -0.970581
-1.28291 1.17305 -3.5885
-1.25602 -0.383882 -3.33141
-1.00383 -0.0674719 -3.53033
1.92775 -0.23517 -3.656
0.536794 -0.405095 -1.13221
-1.03588 0.853144 -3.49167
1.80464 1.42544 -3.665
0.15823 -0.149412 -1.88857
2.05925 1.30851 -3.68425
-1.22265 1.19131 -3.59389
-0.255302 1.42568 -3.562
1.31676 0.356979 -3.61975
-0.942025 0.99259 -3.44367
0.82607 1.36822 -3.60884
-1.48496 0.894118 -3.58962
-0.225693 0.873239 -3.59144
-0.40496 -0.115596 -2.269
-0.194634 0.334596 -3.58356
-1.76276 1.15582 -3.57071
1.01832 1.53286 -3.622
-1.88478 1.51226 -3.58575
-0.224149 -0.415751 -1.38877
0.356267 -0.412245 -0.994529
-1.44406 1.35362 -3.57829
0.532281 -0.398651 -0.876316
0.456959 -0.410191 -1.00407
0.439601 0.997951 -3.6076
-1.4391 -0.422419 -3.2372
-0.524507 1.21375 -3.595
-1.74156 0.197543 -3.567
-1.76114 1.45567 -3.58122
0.658591 -0.411266 -1.27556
-0.763998 0.312837 -3.5591
-0.91655 0.013255 -3.57958
0.00021292 1.53191 -3.5945
-0.338192 -0.413867 -1.58533
-0.714103 1.4303 -3.60227
-0.0454676 -0.413261 -1.28965
2.18308 1.53477 -3.68117
-1.03604 0.468467 -3.58111
0.164194 -0.41267 -1.456
-1.54189 -0.145604 -3.3137
-1.16544 1.51603 -3.58975
1.36484 0.0852814 -2.721
-1.84279 0.0320676 -3.36287
1.6126 0.835793 -2.743
0.235565 -0.408722 -1.8133
-0.461373 -0.415224 -1.02385
1.27845 0.976236 -3.64811
0.764603 0.837071 -3.6125
0.0554266 -0.407111 -1.80507
2.06323 -0.166482 -3.6674
-1.38396 1.15264 -3.5912
0.275956 0.121207 -1.8875
0.436096 -0.326058 -1.79267
-1.37598 0.255678 -3.56133
-0.0457316 -0.0430622 -1.8725
-1.96202 0.693477 -3.2627
0.276682 -0.389892 -2.17725
-0.236853 -0.415215 -1.7565
1.93688 0.859891 -3.741
1.75497 1.1744 -3.649
1.7804 -0.166243 -3.6452
-1.88218 1.29439 -3.5664
0.452956 1.20633 -3.587
0.396336 -0.407073 -0.933102
-0.0845907 0.332112 -3.5629
-1.14493 1.27637 -3.59462
1.93976 1.43168 -3.6405
-1.82481 0.635284 -3.5732
-0.87831 -0.184947 -3.50446
-0.74207 0.573356 -3.59567
-1.00396 0.214191 -3.574
-0.803354 0.810622 -3.4455
-1.94026 1.28585 -3.561
-0.463485 -0.408263 -1.81117
0.788602 1.17158 -3.62247
-1.52339 -0.245635 -3.2894
-1.07772 0.55574 -3.58106
-0.90545 -0.106289 -3.5576
0.217337 0.394678 -3.56771
-0.144271 1.28875 -3.585
-0.143912 -0.426044 -2.2115
1.43767 1.01422 -3.62814
1.45839 -0.325778 -3.62343
0.45695 1.29096 -3.60561
-1.95556 1.13308 -3.46354
-1.94575 0.595704 -3.4952
1.53972 0.349573 -2.70975
-1.30092 1.37595 -3.58586
1.73672 -0.0717716 -3.6465
1.72483 1.32973 -3.64595
0.281227 0.987243 -3.58009
1.54783 0.557717 -2.74883
1.60292 0.714774 -2.74006
-0.663091 0.815913 -3.59422
0.514255 0.854427 -3.63371
-0.999935 -0.170971 -3.36233
-0.71557 0.756672 -3.49325
1.50149 0.388648 -2.70473
1.00574 1.4879 -3.64575
-1.04075 0.612459 -3.58279
1.5362 0.00725925 -3.607
0.483085 -0.132903 -1.84381
-0.359174 0.0518689 -2.32112
1.51564 0.213069 -3.5938
0.47749 0.0731519 -1.8544
1.39539 0.435587 -3.6312
-1.98501 1.58949 -3.516
-1.96022 0.28839 -3.52
1.81902 1.25495 -3.66342
-0.462243 0.955011 -3.5936
0.79783 0.614982 -3.60925
-1.9635 0.17077 -3.394
0.66096 1.55189 -3.60758
0.675768 0.294382 -3.60538
-0.661089 -0.391468 -1.391
1.51437 0.231793 -2.70266
0.136822 0.427797 -3.60067
1.82289 1.52018 -3.639
1.85694 1.55153 -3.63429
0.61602 1.36893 -3.608
0.0547515 -0.406727 -1.01366
1.43866 0.752216 -2.74983
1.57854 0.116217 -3.47567
0.977358 0.952325 -3.63078
0.00871141 0.26944 -3.53265
0.463693 1.43589 -3.61975
1.45295 0.732299 -2.7108
-1.9654 1.05581 -3.3585
0.0902608 0.559879 -3.592
0.616299 1.33388 -3.61683
0.683523 1.36782 -3.60022
1.07825 0.533121 -3.6315
0.217761 -0.307773 -2.2536
1.65554 0.814253 -2.75778
0.8369 1.23348 -3.61233
-1.27941 0.250241 -3.5638
-1.29824 1.50933 -3.58065
0.71792 0.534436 -3.63833
-0.515318 0.975178 -3.59117
-0.10285 0.833003 -3.60527
0.340954 -0.417197 -1.3645
-0.224234 0.952051 -3.59464
-1.59845 0.135202 -3.5431
1.58156 0.192417 -3.52858
-0.816252 0.332065 -3.57962
0.413274 -0.0663379 -1.8925
-1.00763 -0.0457557 -3.52917
0.480996 -0.106421 -3.6074
0.116914 0.531063 -3.5922
-0.118806 -0.423082 -1.68175
-0.702984 0.951134 -3.5325
0.916943 0.654361 -3.61136
0.22139 0.0775311 -1.944
-1.52374 1.27525 -3.574
-1.97328 0.417437 -3.41404
0.034408 1.3199 -3.60333
-1.57552 0.415475 -3.57511
0.978215 0.715184 -3.63689
1.51793 0.612457 -3.62559
0.558817 0.714221 -3.6125
1.41593 1.05654 -3.6425
0.000503417 0.0948253 -1.841
0.455364 0.0140852 -1.87789
0.496946 -0.30653 -1.78026
1.81222 1.10586 -3.606
-0.0808053 0.994437 -3.58825
0.442366 -0.142093 -2.37366
-1.58108 -0.407276 -3.24269
-1.69687 0.0270515 -3.3404
-1.22879 0.176054 -3.46033
0.0981801 0.634664 -3.59914
0.26596 0.916202 -3.60076
-0.014143 -0.00664596 -1.86982
-0.284792 0.614285 -3.572
-1.18209 0.988033 -3.58429
-1.40375 0.891287 -3.58266
-1.09615 1.23402 -3.58693
-1.64495 1.35228 -3.5705
0.393634 0.0552854 -1.97487
1.40712 0.458115 -2.68467
0.240632 -0.186241 -3.59623
0.215744 1.10968 -3.59488
0.206278 1.32933 -3.61525
1.65755 0.252162 -3.531
-0.414722 -0.0485054 -1.86491
1.4861 0.176946 -2.721
-1.60965 1.60441 -3.579
-1.6026 0.310515 -3.57014
0.861685 0.577879 -3.6005
-0.285334 0.935342 -3.59517
2.08818 1.68313 -3.687
1.63741 1.51001 -3.635
0.017003 -0.14634 -1.84447
0.577408 1.11382 -3.61658
2.19299 1.69058 -3.6725
0.279486 -0.42045 -1.61736
0.336804 -0.0455456 -1.86219
2.06351 1.54936 -3.67383
0.941036 1.31203 -3.63725
1.85029 1.56782 -3.63025
1.76655 1.29581 -3.64333
1.7938 0.0208696 -3.667
-1.17539 0.33435 -3.57623
1.48585 -0.0281329 -2.74308
0.967561 0.33338 -3.62669
0.194502 -0.370291 -2.093
1.25587 1.45358 -3.61733
-0.641331 -0.41575 -1.26908
0.737119 1.53429 -3.6202
0.755685 0.272572 -3.6136
-1.59994 1.59019 -3.58525
0.859347 0.415726 -3.62329
-0.404481 -0.345613 -1.79649
-1.50363 0.511083 -3.573
1.37434 0.254583 -3.63138
0.218869 1.35173 -3.60467
1.66399 1.49341 -3.653
-0.14464 -0.420676 -1.5735
1.60515 -0.00769828 -2.73508
-1.919 1.17552 -3.5483
0.974199 0.676589 -3.62575
-0.140564 -0.419978 -1.54733
2.10166 1.6276 -3.70267
-0.00603682 0.637638 -3.603
-1.6022 1.23431 -3.57629
0.304739 0.512777 -3.58434
-1.03579 0.678085 -3.5165
-0.704013 -0.403558 -1.19339
-1.08576 0.39232 -3.575
-0.742568 0.814874 -3.4436
1.43605 -0.446978 -3.567
-1.97559 0.569395 -3.46275
-1.52174 0.551433 -3.57733
-1.58191 1.39329 -3.57511
1.66549 1.15373 -3.6128
0.318973 0.436846 -3.59657
-1.84261 -0.305398 -3.2699
0.359699 -0.414 -2.0145
-0.144159 1.33252 -3.59436
0.238558 0.00740788 -3.58492
0.218721 1.31383 -3.59575
-0.916395 1.47404 -3.5999
1.39972 0.186754 -2.69825
0.926031 0.591809 -3.61919
0.678157 0.453791 -3.63522
1.49485 0.953002 -3.59367
-0.83654 0.912986 -3.44114
-1.93866 0.433959 -3.5345
1.76303 -0.226326 -3.64613
1.74019 1.039 -3.6605
0.875531 0.5908 -3.59533
1.0554 0.49473 -3.62123
0.155642 -0.40995 -1.07495
0.460186 1.35363 -3.6135
0.637506 0.676114 -3.60856
0.96622 0.799022 -3.6455
1.82448 1.05154 -3.65402
0.0483217 0.292724 -3.5796
1.63393 0.383381 -3.568
1.06669 1.3292 -3.64538
-0.100082 1.37327 -3.58517
0.0310064 -0.0150945 -1.799
-0.296215 0.352835 -3.57939
-0.183805 0.633959 -3.59467
0.993987 0.332111 -3.62678
0.959401 1.54995 -3.63984
1.41745 0.413585 -3.63383
-1.06303 1.29273 -3.59222
0.372355 1.23949 -3.611
-0.564103 0.434237 -3.59212
-0.702159 0.410397 -3.59033
-1.96396 0.274593 -3.2795
1.38519 0.0493466 -2.808
-1.28325 1.4147 -3.58517
-0.152583 -0.415698 -1.53464
1.631 0.449542 -3.6045
1.15982 -0.0240661 -3.62712
1.14685 1.23124 -3.63654
1.46118 0.735196 -2.743
1.90361 0.671996 -3.70258
-0.665355 1.17226 -3.59044
-1.11947 1.12858 -3.58453
-0.196802 -0.415634 -2.116
0.705607 1.0732 -3.60775
0.943356 0.353746 -3.60891
-0.313171 -0.393169 -1.0895
-1.62301 -0.346315 -3.27143
-0.476977 0.771046 -3.60196
-0.975969 1.47527 -3.5595
1.86142 1.43635 -3.6595
-1.01046 0.0518141 -3.52546
-0.364222 0.0349545 -1.89739
1.48974 -0.102046 -3.6365
-0.890153 -0.148923 -3.541
0.556684 0.633305 -3.62822
0.041398 0.106157 -1.82803
-1.36469 -0.0648854 -3.32033
-1.97637 1.05236 -3.36472
1.36207 0.176179 -3.64253
-1.524 1.11336 -3.58291
1.16066 1.17486 -3.664
-1.36466 -0.206468 -3.29078
0.0148555 0.875783 -3.59744
0.200052 -0.387396 -2.1655
0.622379 -0.394972 -1.069
-1.72268 0.353291 -3.57289
0.725353 0.353202 -3.61419
-1.31857 -0.44036 -3.34667
1.23817 0.833957 -3.6405
1.49345 0.55288 -3.6312
0.378054 0.968589 -3.6003
0.181346 0.831306 -3.603
0.972991 0.272043 -3.6302
0.939344 1.57092 -3.62317
-1.26248 0.972212 -3.58248
1.78921 0.724014 -3.6515
-0.684761 0.63496 -3.596
-1.83872 0.994339 -3.56394
1.14313 0.674138 -3.64234
1.58954 -0.311601 -3.64708
1.37578 1.39469 -3.63367
1.40039 0.0902348 -3.64175
1.03917 0.553225 -3.62467
-1.69578 0.532107 -3.58431
-0.124226 -0.0155709 -1.854
-1.03775 1.27273 -3.58489
0.642579 -0.397741 -1.07421
1.49779 0.03344 -2.74336
1.53792 0.312909 -3.56266
-1.09496 0.732811 -3.57262
1.92654 -0.0682644 -3.6575
1.5369 0.314744 -3.627
-1.84368 0.274642 -3.58975
-1.86135 1.5324 -3.58929
-1.33188 -0.0846366 -3.31756
1.52381 -0.124046 -3.654
-1.77544 -0.384999 -3.26383
0.805244 0.32725 -3.598
0.754608 1.37576 -3.6329
-1.60535 -0.265262 -3.2917
-1.97668 1.25743 -3.316
-0.211824 -0.378958 -2.141
0.0388187 1.4555 -3.58911
-1.76441 1.43396 -3.58525
-0.234371 -0.423337 -2.22898
-0.243721 -0.407765 -0.974867
0.694863 0.893248 -3.61467
0.830287 1.27039 -3.6244
-0.2031 1.10589 -3.57475
-0.180046 -0.168415 -3.58223
-1.41603 -0.224463 -3.28927
1.71861 1.31729 -3.645
1.73896 -0.0440055 -3.64328
-0.641418 1.54969 -3.60633
-0.222777 0.614113 -3.57378
-1.27197 0.131116 -3.518
2.18971 1.45243 -3.6818
1.48228 0.610004 -2.73871
-1.18257 0.855593 -3.58242
1.4285 0.548206 -2.674
1.55642 -0.248853 -3.6425
-1.64071 -0.426718 -3.22375
-0.383536 1.25472 -3.595
-0.504511 -0.414978 -1.697
-1.56417 0.375814 -3.572
0.201808 1.3716 -3.6025
-0.236388 1.4136 -3.56471
0.29588 0.0956059 -1.82914
1.48599 0.888644 -3.64098
-1.93773 -0.184491 -3.2018
-1.65151 -0.189933 -3.30472
0.635493 -0.404999 -1.12404
-1.51883 1.05388 -3.58178
-0.296377 -0.0158261 -1.874
-0.920174 0.86939 -3.435
1.46196 0.0738948 -2.731
0.418925 -0.419953 -1.41617
-0.679472 0.351733 -3.56706
-0.0154748 0.913577 -3.58771
-1.51478 0.973135 -3.58308
-0.0252865 1.31263 -3.58159
2.10887 1.68402 -3.665
2.07516 -0.222772 -3.652
-1.13933 0.70975 -3.58119
-0.223389 -0.105708 -3.56258
-0.243349 1.15247 -3.5785
-1.97218 0.912379 -3.40247
-1.96557 1.40961 -3.4315
1.5983 0.516101 -2.74514
1.91578 0.577971 -3.755
-0.425127 -0.0141156 -1.86704
-0.623296 0.434207 -3.58608
-0.627611 0.314715 -3.51075
-0.338077 0.994339 -3.58595
1.35661 0.654826 -3.63709
-1.19794 -0.392178 -3.30275
-0.323685 0.0337597 -2.80337
-1.69874 0.468727 -3.58207
0.576699 0.994794 -3.60958
0.239915 1.48925 -3.5984
-1.9379 0.634626 -3.51558
-1.57963 1.51097 -3.58079
-1.62389 0.49757 -3.58557
-1.56219 0.253506 -3.567
1.51773 0.715534 -2.7431
-0.081164 0.752079 -3.60089
-1.83691 -0.388265 -3.25197
0.425027 -0.124504 -2.43375
1.01823 -0.109268 -3.5795
0.425331 0.474907 -3.60369
-0.262381 -0.421214 -2.173
0.51713 -0.412387 -1.27328
0.115876 -0.412124 -1.31525
1.45807 0.175133 -3.641
1.55922 0.0105114 -2.74217
